# .PCD v0.7 - Point Cloud Data file format
VERSION 0.7
FIELDS x y z
SIZE 4 4 4
TYPE F F F
COUNT 1 1 1
WIDTH 1498
HEIGHT 1
VIEWPOINT 0 0 0 1 0 0 0
POINTS 1498
DATA ascii
1.6547608 -0.10125485 1.0092083
1.6552376 -0.10124771 1.0092491
1.6557536 -0.10122435 1.0092663
1.6562546 -0.10128571 1.0092403
1.6567684 -0.10126845 1.0092571
1.6572652 -0.101271 1.0092665
1.6577611 -0.10122244 1.0092918
1.6582581 -0.10122456 1.0093013
1.6587538 -0.10117622 1.0093231
1.65926 -0.10128829 1.0093282
1.6597546 -0.10123215 1.0093483
1.6602404 -0.10126092 1.0093548
1.660753 -0.10131399 1.0093313
1.6612488 -0.1012911 1.0092887
1.6617452 -0.10126787 1.0093523
1.6622412 -0.10124511 1.0092647
1.6627666 -0.10120911 1.0093434
1.6632763 -0.10123781 1.0093689
1.6637414 -0.10129415 1.0094051
1.6640539 -0.1013665 1.009496
1.6646755 -0.10130383 1.0093257
1.6809855 -0.101355 1.00945
1.647392 -0.100636 1.009012
1.6475019 -0.100631 1.009021
1.6483858 -0.10058966 1.0090468
1.6487725 -0.10057151 1.0090585
1.6493772 -0.10054334 1.0090075
1.6497583 -0.10074488 1.0090152
1.6502087 -0.10073001 1.0090535
1.6507508 -0.10087379 1.0091304
1.6512456 -0.10085075 1.0090792
1.6517855 -0.10088987 1.0091766
1.6522406 -0.10089038 1.0091956
1.6527373 -0.10086709 1.0092102
1.653234 -0.10084412 1.0092291
1.6537294 -0.100821 1.0092003
1.6542262 -0.10079776 1.0092298
1.6547232 -0.10077471 1.0092691
1.6552746 -0.10074901 1.0092691
1.6557709 -0.10072588 1.0092827
1.6562777 -0.10076922 1.0092646
1.6567601 -0.10079146 1.009271
1.6572572 -0.10073952 1.0092911
1.6577528 -0.10074524 1.0093068
1.6582501 -0.10069335 1.0093222
1.6587245 -0.10073572 1.0093368
1.6592411 -0.10074134 1.0093575
1.6597362 -0.10074066 1.0093684
1.6602507 -0.1007252 1.0093901
1.6607316 -0.10079695 1.0093977
1.6612469 -0.10074437 1.0093896
1.6617409 -0.100751 1.0093713
1.6622392 -0.10069843 1.0093359
1.6627403 -0.10080078 1.0093738
1.6632662 -0.10076521 1.0094123
1.6636519 -0.10074725 1.0094413
1.6646448 -0.10070125 1.0093325
1.697046 -0.100936 1.009473
1.6473721 -0.10024919 1.0090508
1.647747 -0.100181 1.009014
1.6482905 -0.10025243 1.0090388
1.6487403 -0.10023512 1.0090542
1.6492358 -0.10023722 1.0090405
1.6497328 -0.10018877 1.0090548
1.6502657 -0.100246 1.0090718
1.6507387 -0.10024562 1.0091567
1.6512363 -0.1002555 1.0091479
1.65174 -0.10028311 1.0091879
1.6522603 -0.10031424 1.0092005
1.6527596 -0.10026733 1.0092189
1.6532533 -0.10026812 1.0092283
1.653752 -0.10022111 1.0092244
1.654246 -0.10022178 1.0092412
1.6547457 -0.10017478 1.0092888
1.6552396 -0.10017522 1.0093038
1.6557381 -0.10012856 1.0092989
1.6562314 -0.10012911 1.0092703
1.656773 -0.1001984 1.009287
1.6572696 -0.1001755 1.009297
1.6577656 -0.10015201 1.0093094
1.658262 -0.100129 1.0093265
1.6587873 -0.1002173 1.0093442
1.6592492 -0.10030212 1.0093575
1.6597464 -0.10023511 1.009374
1.6602415 -0.10025589 1.0093856
1.6607387 -0.10018889 1.0094048
1.6612294 -0.100385 1.0094146
1.6617253 -0.100362 1.0093966
1.6622213 -0.100339 1.009394
1.6627728 -0.10039999 1.0093932
1.6632687 -0.10037688 1.0094157
1.663686 -0.10036972 1.0094396
1.664759 -0.100395 1.0091389
1.6473893 -0.099715203 1.0090584
1.6477532 -0.099678002 1.0090823
1.6482472 -0.099742226 1.0090524
1.6487433 -0.099749319 1.0090559
1.6492234 -0.099711314 1.0090567
1.6497376 -0.099799775 1.0090697
1.6502367 -0.09975367 1.009115
1.6507326 -0.099753231 1.0091432
1.6512327 -0.099707 1.0092322
1.6517439 -0.099794619 1.0092289
1.6522607 -0.099770464 1.0092498
1.6527574 -0.099747255 1.0092676
1.653254 -0.099724129 1.0092785
1.6537344 -0.099742197 1.0092973
1.6542622 -0.099778108 1.0093123
1.6547588 -0.099754997 1.0093305
1.6552552 -0.0997319 1.009347
1.6557516 -0.099708624 1.0093629
1.6562471 -0.099685803 1.0093399
1.6567419 -0.099787459 1.009316
1.6572386 -0.099732287 1.0093318
1.6577348 -0.099741243 1.0093491
1.6582094 -0.099763706 1.0093638
1.6587273 -0.099794336 1.0093824
1.6592511 -0.099757396 1.0094031
1.6597751 -0.099720336 1.0094213
1.6602707 -0.099722445 1.0094272
1.6607673 -0.099674225 1.0094483
1.6612558 -0.099772692 1.0094504
1.6617244 -0.099838696 1.0094546
1.6622505 -0.099792711 1.0094603
1.662737 -0.099826105 1.0094181
1.663262 -0.0997895 1.009429
1.6637321 -0.099752583 1.009451
1.6649179 -0.099713497 1.0090871
1.6971775 -0.099722996 1.0094975
1.6472901 -0.099282004 1.0090646
1.6477613 -0.099273503 1.0090764
1.6482571 -0.099250376 1.0090604
1.6487545 -0.099227205 1.0090864
1.6492743 -0.099236555 1.0090961
1.6497463 -0.09926758 1.0091614
1.6502414 -0.099274464 1.0091645
1.6507398 -0.099221356 1.0091869
1.6512362 -0.099228084 1.0092425
1.6517314 -0.099260546 1.0092335
1.6522756 -0.099249884 1.0092522
1.6527719 -0.099250227 1.0092658
1.6532686 -0.099203669 1.0092856
1.6537955 -0.099276088 1.0093045
1.6542648 -0.099254921 1.0093229
1.654762 -0.099262513 1.0093397
1.6552578 -0.099208705 1.0093571
1.6557406 -0.099277273 1.0093666
1.6562518 -0.099281996 1.009347
1.6567478 -0.099258699 1.0093361
1.6572443 -0.099235758 1.0093528
1.6577408 -0.09921249 1.0093818
1.6582532 -0.099289998 1.00938
1.6587316 -0.099253431 1.009398
1.6592467 -0.099243864 1.0094188
1.6597593 -0.099234231 1.0094371
1.6602269 -0.099265561 1.0094486
1.6607449 -0.099275015 1.0094655
1.6612692 -0.099239111 1.0094819
1.6617594 -0.099329807 1.0094627
1.6622887 -0.099344604 1.0094594
1.6627673 -0.099312 1.0094581
1.6632524 -0.099242777 1.0094728
1.6636342 -0.099341333 1.0094798
1.664849 -0.099285498 1.0092235
1.6658421 -0.099140003 1.009096
1.6473682 -0.098968327 1.0090134
1.6476994 -0.098953001 1.0090261
1.6494086 -0.098873496 1.0090051
1.6497917 -0.098833598 1.0090601
1.6502455 -0.098743156 1.0090528
1.6507459 -0.098717391 1.0090765
1.6512411 -0.098696724 1.0091519
1.6517692 -0.098737232 1.00915
1.6522502 -0.098729581 1.0091686
1.6527618 -0.098705105 1.0091803
1.6532583 -0.098681815 1.0091958
1.6537359 -0.098676942 1.0092297
1.6542481 -0.098687753 1.0092682
1.6547446 -0.098664336 1.0092771
1.6552247 -0.098691672 1.0093209
1.6557556 -0.098761618 1.0093553
1.6562583 -0.098784588 1.0093217
1.6567537 -0.09872961 1.0093234
1.6572386 -0.098756619 1.0093699
1.6577497 -0.098807499 1.0094154
1.6582457 -0.098784313 1.0094041
1.658742 -0.098761246 1.0094229
1.6592381 -0.098738097 1.009438
1.6597635 -0.098724 1.009456
1.6602784 -0.098776005 1.0094626
1.6607594 -0.09876778 1.0094757
1.6612641 -0.098854333 1.0094801
1.66176 -0.098924503 1.0094877
1.6620359 -0.098912001 1.009499
1.6628621 -0.098747604 1.0094742
1.6632482 -0.098761894 1.0094798
1.663689 -0.098834664 1.009487
1.6649315 -0.098673001 1.0092185
1.6659174 -0.098728672 1.0093313
1.666028 -0.098723337 1.00929
1.6475281 -0.098107003 1.009027
1.649402 -0.098020002 1.009008
1.6497104 -0.098056249 1.0090147
1.6502607 -0.098300003 1.0090228
1.6507554 -0.098253883 1.0090517
1.6512567 -0.098253556 1.0091326
1.6517507 -0.098207228 1.0091504
1.6522487 -0.098207563 1.0091215
1.652742 -0.098161221 1.0091171
1.6532412 -0.098161221 1.0091338
1.6537708 -0.098184176 1.0091596
1.6542265 -0.098269284 1.009167
1.6547507 -0.098335341 1.0091832
1.6552563 -0.098334089 1.009197
1.6557387 -0.098353781 1.0091995
1.6562338 -0.098300919 1.0091735
1.6567312 -0.098307498 1.0092109
1.6572571 -0.098279797 1.0092286
1.657755 -0.098301373 1.009281
1.6582527 -0.098286048 1.0092617
1.6587231 -0.098304555 1.0092833
1.6592586 -0.098315507 1.0092963
1.6597509 -0.098306321 1.0093277
1.660267 -0.098275065 1.0093335
1.6607631 -0.098251998 1.0093492
1.6612593 -0.098228946 1.0093637
1.6617554 -0.098205671 1.0093811
1.6622514 -0.098182738 1.0093955
1.6627669 -0.098183304 1.0094113
1.6632434 -0.098136544 1.0093856
1.6637453 -0.0980841 1.0094185
1.664019 -0.098026 1.009433
1.664876 -0.098382004 1.009292
1.6722701 -0.098036997 1.009204
1.6477699 -0.097677499 1.009027
1.6482661 -0.097654 1.0090226
1.6487629 -0.097631246 1.0090375
1.6492598 -0.097607993 1.0090517
1.6498044 -0.097721994 1.0090587
1.6502436 -0.097748116 1.0090733
1.6507381 -0.097771555 1.0090898
1.6512389 -0.097701557 1.0091707
1.6517228 -0.097911201 1.0091519
1.6522734 -0.097886004 1.009131
1.6527699 -0.097862504 1.0091432
1.6532665 -0.09783981 1.0091586
1.6537637 -0.097816505 1.009196
1.6543075 -0.097867876 1.0091873
1.6547648 -0.09787225 1.0092
1.655262 -0.097848892 1.0092691
1.6557579 -0.097825877 1.0092564
1.6562538 -0.097803004 1.0092424
1.6567503 -0.097779751 1.0092748
1.6572466 -0.097756699 1.0093023
1.6577427 -0.097733498 1.0093046
1.6582386 -0.097710602 1.0092754
1.6587737 -0.097770467 1.0093331
1.6592402 -0.097752504 1.0093638
1.6597575 -0.097743578 1.0093367
1.6602505 -0.097720295 1.0093316
1.6607208 -0.097781003 1.0093288
1.6612339 -0.097766228 1.0093436
1.6617588 -0.097753003 1.009377
1.6622548 -0.097730249 1.0093772
1.6627508 -0.097707003 1.0093892
1.6632465 -0.097683877 1.0094112
1.6637424 -0.097660996 1.0094255
1.664073 -0.097645 1.0094476
1.6648277 -0.097736672 1.0092963
1.6722475 -0.097809002 1.009158
1.6473221 -0.097016998 1.009032
1.6477816 -0.097227298 1.0090671
1.6482612 -0.097203508 1.0090462
1.6487648 -0.097221419 1.0090253
1.6492773 -0.097183786 1.0090417
1.649749 -0.09720514 1.0090612
1.6502448 -0.097206615 1.0090784
1.6507255 -0.097171165 1.0091016
1.6512389 -0.097237453 1.0091686
1.6517397 -0.097286619 1.0092174
1.6522352 -0.097290426 1.009187
1.6527321 -0.097240388 1.0092282
1.6532294 -0.097244151 1.0092673
1.653744 -0.097193651 1.0092407
1.6542261 -0.097216003 1.0092461
1.6547482 -0.097240008 1.009281
1.6552404 -0.097239338 1.0093352
1.6557667 -0.097203806 1.0093545
1.6562623 -0.097180746 1.0093272
1.6567591 -0.097157508 1.0093716
1.6572546 -0.097134501 1.0093476
1.6577272 -0.097123779 1.0093702
1.6582528 -0.097189501 1.0093633
1.6587492 -0.097166598 1.0093976
1.659245 -0.097143494 1.0093615
1.659741 -0.097120203 1.0094076
1.6602371 -0.097097501 1.0093969
1.6607721 -0.097258449 1.0093796
1.6612453 -0.097259499 1.0093975
1.6617415 -0.09723641 1.0094212
1.6622163 -0.097244285 1.0094182
1.6627496 -0.0973984 1.0094141
1.6632454 -0.097375497 1.0094262
1.6637415 -0.097352199 1.0094514
1.6649246 -0.097365998 1.0092133
1.6722997 -0.097297668 1.0093668
1.6473656 -0.096635506 1.0090411
1.647805 -0.096779458 1.0090899
1.6482571 -0.096797079 1.0090759
1.6487517 -0.096770503 1.0090473
1.649249 -0.096750997 1.0090611
1.6497455 -0.096724287 1.0090803
1.6502239 -0.096742548 1.0090901
1.6507648 -0.096809797 1.0091007
1.6512419 -0.096821465 1.0091795
1.6517392 -0.096821062 1.0092118
1.6522354 -0.096775152 1.0092236
1.6527317 -0.096774854 1.0092089
1.6532284 -0.096728936 1.0092597
1.6537433 -0.096716955 1.0092691
1.6542968 -0.096739322 1.0092701
1.6547726 -0.096732527 1.0093058
1.6552696 -0.096800148 1.0093265
1.655766 -0.096776918 1.0093491
1.6562623 -0.096753933 1.0093684
1.6567583 -0.096730843 1.0093632
1.6572546 -0.096707597 1.0093907
1.6577672 -0.096708916 1.009389
1.6582328 -0.096743062 1.0093476
1.6587405 -0.096810766 1.0093809
1.6592373 -0.096763216 1.0093834
1.6597128 -0.09676864 1.0094573
1.6602753 -0.096752293 1.0094398
1.6607407 -0.096723199 1.0093988
1.6612396 -0.096681803 1.0094184
1.6617413 -0.09668728 1.0094142
1.6622981 -0.096773185 1.0094321
1.6627657 -0.096773461 1.0094498
1.6632706 -0.096778706 1.0094627
1.6636947 -0.09672156 1.0094814
1.664883 -0.096725605 1.0093174
1.6722413 -0.096644752 1.0091671
1.6472971 -0.096273124 1.0090357
1.6477145 -0.096275732 1.0090858
1.64823 -0.096280001 1.0091317
1.6487242 -0.096257202 1.0090822
1.649276 -0.096231408 1.0090932
1.6497728 -0.096208252 1.0091097
1.6502831 -0.096237086 1.0091391
1.6507561 -0.096283697 1.0092243
1.6512567 -0.096229218 1.0092573
1.6517355 -0.096257254 1.0092778
1.6522462 -0.096293665 1.0093013
1.6527386 -0.096293785 1.0093163
1.6532644 -0.096257895 1.009333
1.6537613 -0.096234746 1.0093509
1.6542577 -0.096211791 1.0093651
1.6547539 -0.096188501 1.0093856
1.6552554 -0.09625873 1.0093828
1.6557533 -0.096268006 1.009394
1.6562475 -0.096212581 1.0094066
1.6567341 -0.096291199 1.0094132
1.6572481 -0.096275322 1.0094435
1.6577452 -0.096277222 1.0094537
1.6582437 -0.096341997 1.009449
1.6587414 -0.096399106 1.0094484
1.6592518 -0.096297398 1.0094678
1.6597497 -0.096247941 1.0094601
1.6602293 -0.09634722 1.0094457
1.6606778 -0.096328996 1.0094329
1.6612484 -0.096291505 1.0093998
1.6618004 -0.096329585 1.00941
1.6622691 -0.096308537 1.0094264
1.6627651 -0.096308358 1.0094373
1.6633565 -0.09623225 1.0094508
1.6637019 -0.096267819 1.0094748
1.664969 -0.096196003 1.009405
1.665023 -0.096038997 1.009419
1.6722444 -0.096279345 1.0093493
1.6473569 -0.0956892 1.009055
1.6477749 -0.095774546 1.0091155
1.6482524 -0.09576793 1.0091336
1.648751 -0.095744424 1.0091275
1.6492434 -0.09572193 1.0090952
1.6497344 -0.09574908 1.0091144
1.6502606 -0.095774755 1.009133
1.650759 -0.095751405 1.0092034
1.6512563 -0.095728368 1.0092431
1.6517688 -0.095731825 1.0092694
1.6522523 -0.09579815 1.0092834
1.652748 -0.095745139 1.0093005
1.6532452 -0.095751703 1.0093185
1.6537408 -0.095698938 1.0093333
1.654259 -0.0957895 1.0093462
1.6547554 -0.095766254 1.0093627
1.6552517 -0.095743403 1.0093784
1.6557479 -0.095720001 1.0093981
1.6562442 -0.095697001 1.009415
1.6567726 -0.095760666 1.0094371
1.6572496 -0.095756859 1.0094535
1.6577667 -0.095747434 1.0094713
1.6582127 -0.095710993 1.0094832
1.658806 -0.095760502 1.0094637
1.659429 -0.095867999 1.00946
1.6596695 -0.095769607 1.00946
1.661077 -0.095573001 1.009497
1.6617972 -0.095730007 1.0094725
1.6622396 -0.095654123 1.0094839
1.6625125 -0.095615499 1.0094891
1.6724679 -0.095999002 1.009425
1.64731 -0.095328502 1.0090888
1.647753 -0.095307373 1.0091364
1.6482506 -0.095284395 1.0091684
1.6487468 -0.095260993 1.009177
1.6492436 -0.095238 1.0091934
1.6497744 -0.09529046 1.0091944
1.6502417 -0.095272228 1.0092272
1.6507407 -0.095276766 1.0092659
1.6512352 -0.095225938 1.009272
1.6517342 -0.095230475 1.0093017
1.652202 -0.095229544 1.0093491
1.6527315 -0.095276453 1.0093306
1.6532266 -0.095232673 1.0093479
1.6537513 -0.095218599 1.009364
1.6542485 -0.095293246 1.0093733
1.654745 -0.095270082 1.0093887
1.6552606 -0.095245704 1.0094049
1.6557548 -0.095223434 1.0094228
1.656253 -0.095199466 1.0094382
1.6567448 -0.095283113 1.0094413
1.6572443 -0.095237441 1.0094563
1.6577371 -0.095236778 1.0094739
1.658217 -0.095278621 1.0094914
1.6586316 -0.095485494 1.0094975
1.659458 -0.095446996 1.009446
1.6596229 -0.095439494 1.009451
1.6619375 -0.095331505 1.009464
1.662254 -0.09520556 1.0094744
1.6627527 -0.095204674 1.0094867
1.6630141 -0.095081002 1.009496
1.6473802 -0.094742164 1.0091165
1.6477712 -0.094723627 1.0092374
1.6482664 -0.0947005 1.0092119
1.6487627 -0.094677493 1.0092191
1.6492596 -0.0946545 1.0092351
1.6497563 -0.094631001 1.0092541
1.6502123 -0.094686836 1.0092721
1.6507437 -0.0947005 1.0092942
1.6512406 -0.094677202 1.0093168
1.651738 -0.094654255 1.0093597
1.6522715 -0.094767377 1.009397
1.6527538 -0.09481144 1.009376
1.653245 -0.094747782 1.0093755
1.6537714 -0.094743602 1.0093923
1.654268 -0.094720371 1.0094181
1.6547644 -0.094697505 1.0094243
1.6552533 -0.094858505 1.0094132
1.6557496 -0.094835602 1.0094279
1.6562457 -0.094812497 1.009444
1.6567467 -0.094888099 1.0094746
1.6572068 -0.0948072 1.0094827
1.6577342 -0.094743006 1.0094955
1.662438 -0.094906002 1.009482
1.6627686 -0.094890803 1.009488
1.66343 -0.094860002 1.009446
1.6635849 -0.094668999 1.00949
1.6649981 -0.094989002 1.0094661
1.6473162 -0.094180003 1.0091349
1.6477456 -0.094186462 1.0092268
1.6482424 -0.094187789 1.0092123
1.6487709 -0.094221331 1.0092114
1.6492658 -0.094222553 1.0092245
1.6497642 -0.094175115 1.0092443
1.6502763 -0.094272614 1.0092657
1.6507584 -0.094233453 1.0093205
1.6512544 -0.094242722 1.009361
1.6517462 -0.094313376 1.0093467
1.6522442 -0.094289891 1.0094094
1.6527406 -0.09426675 1.0094347
1.653237 -0.094243698 1.0094439
1.6537334 -0.094220497 1.009469
1.654229 -0.094197504 1.0094652
1.6547545 -0.0941609 1.0094343
1.6552523 -0.094263077 1.0094569
1.6557692 -0.094239421 1.0094693
1.6562661 -0.094327994 1.009495
1.6473848 -0.093749866 1.0090656
1.6477594 -0.093709081 1.0091033
1.6482279 -0.093716003 1.0090743
1.6487409 -0.093845457 1.0091579
1.6492391 -0.093799494 1.0091586
1.6497344 -0.093799308 1.0091912
1.6502329 -0.093753226 1.0091987
1.65073 -0.093752846 1.0093005
1.6512457 -0.093716934 1.0093133
1.6517611 -0.093764827 1.0093381
1.6522409 -0.09377531 1.0093813
1.6527499 -0.09381099 1.0094283
1.6532449 -0.093767352 1.0094142
1.6537368 -0.093769111 1.0094131
1.6542311 -0.093715116 1.0094287
1.6547409 -0.093707614 1.0094522
1.655252 -0.093682997 1.0094434
1.6557477 -0.093660101 1.009437
1.656229 -0.093842663 1.009474
1.6567175 -0.093935505 1.0094905
1.647385 -0.09328267 1.0090544
1.6477536 -0.093233004 1.009087
1.6482846 -0.093266703 1.0090607
1.6487489 -0.093270309 1.0090533
1.6492472 -0.093275853 1.0090692
1.6497427 -0.093224011 1.0090922
1.6502415 -0.093229532 1.0091393
1.6507092 -0.093228005 1.0091944
1.6512393 -0.093276106 1.0092313
1.6517357 -0.093231 1.0092932
1.6522593 -0.093278356 1.009264
1.6527416 -0.093289711 1.0092808
1.6532551 -0.093252577 1.0093
1.6537524 -0.093257539 1.0093157
1.6542478 -0.093206279 1.0093343
1.6547503 -0.093226232 1.0093504
1.6552591 -0.093268499 1.0093383
1.6557549 -0.093245804 1.0093244
1.6562693 -0.09329664 1.0093949
1.6567506 -0.093291208 1.0093721
1.6572469 -0.093267828 1.0093939
1.6577429 -0.093244873 1.0094188
1.6582588 -0.093221068 1.0094296
1.6587337 -0.093125299 1.0094274
1.6592705 -0.093176 1.009433
1.6597664 -0.093152501 1.0094514
1.6602625 -0.093129799 1.0094681
1.6607583 -0.093106501 1.0094818
1.661144 -0.093089007 1.0094941
1.662852 -0.093009502 1.0094819
1.663017 -0.093001999 1.009485
1.6473744 -0.092791751 1.0090473
1.6477408 -0.092843123 1.0091114
1.6482365 -0.092820205 1.0091025
1.6487614 -0.09278056 1.0090814
1.6492554 -0.092788003 1.0091242
1.6497574 -0.09273389 1.0091915
1.6502502 -0.092741445 1.009209
1.6507739 -0.092763662 1.0092239
1.6512395 -0.092780776 1.0092462
1.6517394 -0.092751645 1.0093125
1.6522354 -0.092816822 1.0092846
1.6527733 -0.092815228 1.0092814
1.6532695 -0.092809342 1.0092958
1.6537659 -0.092768885 1.0093144
1.6542625 -0.092762895 1.0093471
1.6547753 -0.092750102 1.0093522
1.6552559 -0.092811212 1.0093688
1.6557513 -0.092763163 1.0093659
1.6562479 -0.092765138 1.0093901
1.656743 -0.092717081 1.0093508
1.6572394 -0.092719071 1.0093769
1.6577359 -0.092670701 1.0094477
1.6582327 -0.0927452 1.0094337
1.6587204 -0.092708431 1.0094228
1.6592287 -0.092782363 1.0094359
1.6597619 -0.092771344 1.0094525
1.6602578 -0.092748076 1.0094711
1.6607226 -0.092726588 1.0094872
1.6611208 -0.092643008 1.0094976
1.6628754 -0.092821494 1.0094781
1.6632749 -0.092885554 1.0094842
1.663635 -0.092879504 1.0094962
1.6473789 -0.092243403 1.009097
1.6477638 -0.092195444 1.0091587
1.6482626 -0.092193447 1.0091625
1.6487552 -0.092149436 1.0091335
1.6492563 -0.092147328 1.0092047
1.6497502 -0.092102885 1.0092186
1.650228 -0.092155501 1.009232
1.6507558 -0.092162505 1.0092523
1.6512527 -0.092139594 1.0092858
1.6517513 -0.092116252 1.009372
1.6522707 -0.092242993 1.0093269
1.6527478 -0.092293777 1.0093212
1.6532428 -0.092225887 1.0093397
1.6537415 -0.092247225 1.0094075
1.6541897 -0.09223301 1.0093825
1.6547375 -0.092380002 1.009385
1.6552335 -0.092356995 1.009402
1.6557297 -0.092333995 1.0094277
1.656226 -0.092310496 1.0094422
1.6567219 -0.092287801 1.0094422
1.6573008 -0.092260748 1.0094775
1.657769 -0.092238747 1.0094912
1.6581929 -0.092438601 1.0094293
1.6587412 -0.092346221 1.0094401
1.6592768 -0.092442997 1.0094455
1.6597662 -0.092328832 1.009474
1.6602287 -0.092353165 1.0094824
1.660599 -0.092381999 1.009497
1.6634099 -0.092407003 1.0094939
1.6635754 -0.092399001 1.009498
1.6474633 -0.091749996 1.0090585
1.6477629 -0.091751531 1.0091648
1.6482279 -0.091731906 1.0091914
1.6487515 -0.091805011 1.0091554
1.6492435 -0.091759779 1.0091761
1.6497711 -0.0917463 1.0092195
1.6502745 -0.091796465 1.0092376
1.6507541 -0.091790594 1.0092579
1.6512508 -0.091767333 1.0092862
1.6517485 -0.091744073 1.009336
1.6522651 -0.091733918 1.0093772
1.6527419 -0.091698542 1.0093845
1.653259 -0.091778554 1.0093944
1.6537528 -0.091736659 1.0094459
1.6542784 -0.091779649 1.009442
1.6547395 -0.091778845 1.0094442
1.6552244 -0.091797225 1.0094427
1.6557875 -0.091792822 1.0094495
1.6562915 -0.091751717 1.009465
1.6567613 -0.091712616 1.0094823
1.6571285 -0.091680281 1.0094852
1.6576099 -0.091747999 1.0094705
1.658309 -0.091811001 1.009456
1.658695 -0.091793254 1.009468
1.6473811 -0.091226757 1.0090995
1.6477445 -0.091198333 1.009214
1.6482763 -0.091251917 1.0092479
1.6487454 -0.091253392 1.0092193
1.6492419 -0.091261365 1.0092094
1.6497387 -0.091207236 1.0092572
1.6502223 -0.091276012 1.0092708
1.6507639 -0.091266885 1.0092932
1.6512579 -0.091268107 1.0093172
1.6517587 -0.091220446 1.0093905
1.6522527 -0.09122178 1.0094225
1.6527741 -0.091206208 1.0094357
1.653248 -0.091270082 1.0094432
1.6537462 -0.091246575 1.0094607
1.6542182 -0.091264173 1.0094759
1.6547425 -0.091413997 1.0094721
1.6552867 -0.091318175 1.0094761
1.6558001 -0.091189168 1.0094657
1.6562474 -0.091238499 1.0094724
1.6566948 -0.091288 1.0094807
1.6572747 -0.091329679 1.009479
1.6593593 -0.091399997 1.009495
1.6596456 -0.091185495 1.0094991
1.647398 -0.090873249 1.0090758
1.6477482 -0.090831079 1.0092063
1.6482465 -0.090785772 1.0092779
1.6487434 -0.090784781 1.0092928
1.6492378 -0.090739846 1.0092535
1.6497349 -0.090738788 1.0092703
1.6502416 -0.090749256 1.0092967
1.6507282 -0.090765543 1.0093187
1.6512122 -0.090731323 1.0093781
1.651724 -0.090780929 1.0094229
1.6522758 -0.090755254 1.0094488
1.6527719 -0.090732083 1.0094612
1.6532681 -0.090709001 1.0094782
1.6537282 -0.090593509 1.0094866
1.6542058 -0.090559497 1.0094815
1.655793 -0.090934999 1.0094886
1.656069 -0.090921998 1.009497
1.6473913 -0.090171203 1.0090898
1.6477431 -0.09022893 1.0092446
1.6482445 -0.09020514 1.0093158
1.6487166 -0.090239309 1.0093199
1.6492537 -0.090251401 1.0092769
1.6497501 -0.09022826 1.0092924
1.650247 -0.090205193 1.0093158
1.6507444 -0.090181753 1.0093657
1.6512604 -0.090189546 1.0094264
1.6517702 -0.090265498 1.0094419
1.6522368 -0.090247914 1.0094591
1.6527675 -0.090308003 1.0094628
1.6532638 -0.090285003 1.0094761
1.6536679 -0.090222836 1.0094899
1.6473647 -0.089749746 1.009097
1.6477594 -0.089731 1.0093154
1.6482568 -0.089707747 1.0093533
1.6487664 -0.089755766 1.0093613
1.6492487 -0.089781389 1.0093235
1.6497445 -0.089727424 1.0093207
1.6502415 -0.089735001 1.009343
1.6507319 -0.089787774 1.009401
1.6512579 -0.089774899 1.0094484
1.6517541 -0.089751624 1.0094697
1.6522241 -0.089741446 1.0094886
1.652562 -0.089818001 1.009499
1.647423 -0.089362994 1.0091085
1.6477423 -0.089204997 1.0092504
1.6482463 -0.089209557 1.0093665
1.6487392 -0.089158222 1.0093774
1.6492643 -0.089148 1.0093747
1.6497191 -0.089204006 1.0093406
1.6502438 -0.089231007 1.0093628
1.650746 -0.089363784 1.0093757
1.6512429 -0.089309216 1.0094476
1.651721 -0.089337751 1.0094821
1.6521316 -0.089424506 1.0094955
1.6477673 -0.088881008 1.0092359
1.6482686 -0.088857494 1.0093763
1.648765 -0.088834204 1.0093883
1.649261 -0.088811502 1.0093865
1.6497821 -0.088865258 1.0093492
1.6502612 -0.088880673 1.0093673
1.650758 -0.088834114 1.0094488
1.6512563 -0.088834003 1.0094749
1.6516539 -0.088825002 1.0094918
1.6474618 -0.088255338 1.0090584
1.64776 -0.088257693 1.0092157
1.648261 -0.088202514 1.0092534
1.6487515 -0.088309675 1.0093111
1.6492503 -0.088261768 1.0092759
1.6497425 -0.088263668 1.0092839
1.6502438 -0.088215329 1.0093218
1.6507374 -0.088217236 1.0093839
1.6512636 -0.088180095 1.0094017
1.6517354 -0.088142291 1.009429
1.6522459 -0.088022999 1.009394
1.652631 -0.088004999 1.009392
1.647433 -0.087899998 1.009086
1.6477698 -0.087760709 1.0091659
1.6482676 -0.087736994 1.009217
1.6487634 -0.087792791 1.0092272
1.6492598 -0.087797001 1.0092424
1.6497552 -0.087746575 1.0092239
1.6502515 -0.087750696 1.0092385
1.6507186 -0.087756738 1.0092976
1.6512446 -0.087806225 1.0093223
1.6517422 -0.087766007 1.0093943
1.6522375 -0.087759778 1.0093801
1.6527551 -0.087769829 1.0093857
1.6532331 -0.087807648 1.0094199
1.6537112 -0.087773338 1.0094571
1.6542153 -0.087742671 1.0094795
1.6547737 -0.087587602 1.0094616
1.6552693 -0.087686002 1.0094677
1.6557564 -0.087638006 1.0094819
1.6562611 -0.087639749 1.0094928
1.6565371 -0.087627001 1.0095
1.6474342 -0.087318003 1.0091021
1.6477549 -0.087345779 1.0092199
1.6482536 -0.087315723 1.0092537
1.6487483 -0.087299466 1.0092653
1.6492465 -0.087269351 1.0092801
1.6497414 -0.087253317 1.0092955
1.6502391 -0.087223209 1.0093052
1.6507592 -0.087260306 1.0093489
1.65125 -0.087241568 1.0093538
1.6517282 -0.087281637 1.0094075
1.6522491 -0.087273367 1.0094141
1.6527445 -0.087271623 1.0094235
1.6532062 -0.087254547 1.0094683
1.6537541 -0.087265991 1.0094604
1.6542495 -0.087242879 1.0094538
1.655825 -0.087261006 1.0094937
1.656101 -0.087248504 1.009498
1.647364 -0.086950004 1.0090574
1.6477389 -0.086869925 1.0092516
1.6482369 -0.086825162 1.0092887
1.6487327 -0.08682365 1.0092894
1.6492488 -0.086784147 1.0093113
1.6497432 -0.086771704 1.0093361
1.6502424 -0.086737864 1.0093646
1.6507548 -0.08671394 1.0093706
1.6512576 -0.086718149 1.0093949
1.6517824 -0.086794607 1.0094682
1.6521999 -0.086817093 1.0094903
1.65259 -0.086708002 1.009498
1.647415 -0.086145997 1.009095
1.647758 -0.086225927 1.0092376
1.6482575 -0.086217858 1.0093006
1.6487528 -0.086179465 1.0093168
1.6492498 -0.086171649 1.009313
1.6497464 -0.086133152 1.0093607
1.6502433 -0.086125426 1.0093659
1.6507189 -0.086130448 1.0094362
1.6511925 -0.086131334 1.0094631
1.652222 -0.086066805 1.0094941
1.647388 -0.085757248 1.00911
1.6477536 -0.0857362 1.0093112
1.6482511 -0.085713081 1.0093505
1.6487397 -0.085789703 1.0094084
1.6492653 -0.085775219 1.0094267
1.6497573 -0.085732773 1.0094162
1.6502577 -0.085728779 1.0094538
1.6507293 -0.085796371 1.0094575
1.6511946 -0.085842833 1.0094764
1.651507 -0.085955001 1.009499
1.6474427 -0.085289672 1.0090894
1.6477627 -0.08524213 1.009334
1.648261 -0.085218593 1.0093893
1.6487616 -0.085309014 1.0094086
1.6492572 -0.085256562 1.009431
1.6497548 -0.085262537 1.0094535
1.65025 -0.085210435 1.0094684
1.6506921 -0.085232288 1.009488
1.647441 -0.0847895 1.009063
1.6477543 -0.084754884 1.0093004
1.6482519 -0.084770001 1.0093912
1.6487511 -0.084708221 1.009431
1.6492444 -0.084723666 1.0094159
1.6497145 -0.084682748 1.0094414
1.6502297 -0.084830999 1.0094416
1.6507618 -0.084846012 1.0094711
1.651057 -0.084792495 1.0094795
1.647367 -0.084421501 1.0091127
1.6477169 -0.084399752 1.0093552
1.6482115 -0.084385872 1.0094576
1.6489245 -0.084348246 1.009488
1.6492127 -0.084328339 1.00949
1.649703 -0.084365666 1.009487
1.6502475 -0.084485248 1.009487
1.64748 -0.083934665 1.009156
1.6477634 -0.08384335 1.00936
1.6482226 -0.08384151 1.0094608
1.6486981 -0.083917499 1.00948
1.6492465 -0.083820604 1.009487
1.6496643 -0.083851665 1.0094947
1.6474451 -0.083211005 1.0090697
1.6477411 -0.083287999 1.009347
1.6481055 -0.083283 1.0094655
1.6488914 -0.083138496 1.0094645
1.6492773 -0.083120003 1.0094709
1.6497738 -0.083097249 1.0094891
1.647486 -0.082771003 1.009014
1.6477671 -0.082769848 1.0092403
1.6482682 -0.082773007 1.0093844
1.6487648 -0.082723163 1.0094029
1.6492594 -0.082727 1.0093772
1.6497566 -0.08267723 1.0094035
1.6502514 -0.082757905 1.0094171
1.6507486 -0.082734622 1.0094702
1.6510798 -0.082719497 1.0094948
1.6478065 -0.082308494 1.0092036
1.6482534 -0.082287379 1.0093627
1.6487503 -0.082264297 1.0093892
1.6492463 -0.082240999 1.0094056
1.6497427 -0.082218096 1.0094235
1.650245 -0.08229284 1.0094547
1.650714 -0.082240544 1.0094706
1.6511949 -0.082090199 1.0094793
1.6516117 -0.082029998 1.0094918
1.647465 -0.081995003 1.009023
1.6478038 -0.08189144 1.0091698
1.648259 -0.081866555 1.0093291
1.6487579 -0.081820332 1.0093468
1.649258 -0.081729762 1.0092703
1.6497272 -0.081707753 1.0092926
1.6502439 -0.081774332 1.0093737
1.6507422 -0.081728339 1.0093752
1.6511997 -0.081656806 1.0093889
1.6517458 -0.081590198 1.009441
1.6522423 -0.081567496 1.0094723
1.6527666 -0.081611335 1.0094352
1.6531754 -0.081524 1.0093327
1.6543679 -0.081673503 1.00947
1.654809 -0.081653506 1.0094786
1.6552492 -0.081632502 1.0094807
1.658893 -0.081894003 1.009428
1.6592234 -0.081878401 1.0094442
1.6632586 -0.0818865 1.0090275
1.6642489 -0.081992999 1.009463
1.6656265 -0.081928506 1.0094974
1.6499319 -0.081495002 1.0090345
1.6502635 -0.081479505 1.0090493
1.6507612 -0.0814564 1.0090903
1.6512605 -0.081432752 1.0091975
1.6517582 -0.081409402 1.0092595
1.6521976 -0.08138901 1.0092008
1.687248 -0.1825055 1.0097035
1.688482 -0.18266 1.009686
1.6886511 -0.1826525 1.0096354
1.6890869 -0.182632 1.0097079
1.689801 -0.18259899 1.0097374
1.6902363 -0.18257841 1.009806
1.690732 -0.1825555 1.009807
1.691234 -0.18253221 1.0097349
1.6917421 -0.18250924 1.0095894
1.6732578 -0.18211178 1.0095377
1.6737535 -0.18208849 1.0095536
1.674247 -0.1820654 1.0096257
1.674742 -0.18204251 1.0096457
1.675235 -0.182019 1.0097436
1.675565 -0.182004 1.009758
1.6777738 -0.18226741 1.0095493
1.6782668 -0.18224449 1.009609
1.6787605 -0.182221 1.0096661
1.6792531 -0.182198 1.0097382
1.6797566 -0.18223816 1.0097275
1.6802303 -0.18227589 1.0096925
1.6807536 -0.1822394 1.009727
1.6812481 -0.18221599 1.0097544
1.681743 -0.1821932 1.009773
1.6822469 -0.18216938 1.009874
1.6827527 -0.18215822 1.0099063
1.6832539 -0.18236703 1.0097569
1.683745 -0.18231735 1.0098025
1.6842693 -0.18230641 1.0098044
1.6847638 -0.18228312 1.009825
1.6852669 -0.18227312 1.0098715
1.6857073 -0.182311 1.0098813
1.68617 -0.18233749 1.0099328
1.6873888 -0.18235366 1.009907
1.6877491 -0.18237279 1.0099136
1.6882466 -0.18242215 1.0099553
1.6887751 -0.18243375 1.0099268
1.6892719 -0.182411 1.0099081
1.6897639 -0.18238774 1.0099566
1.6902583 -0.182365 1.0099717
1.6907468 -0.18222132 1.0099572
1.691254 -0.182319 1.0099219
1.6917958 -0.18220058 1.0098598
1.6922258 -0.18220821 1.0097812
1.6927524 -0.18212901 1.0096951
1.6931118 -0.18208835 1.0095558
1.665333 -0.18162666 1.0095217
1.6658289 -0.18160349 1.0095395
1.66627 -0.18158275 1.0095551
1.6667655 -0.18155999 1.0095789
1.667292 -0.18158279 1.00957
1.6677513 -0.1816334 1.0095608
1.668239 -0.18172951 1.0096415
1.6687629 -0.18173265 1.009636
1.6692312 -0.18177424 1.0095927
1.669726 -0.18173289 1.0096555
1.6702492 -0.18171771 1.0096695
1.6707722 -0.18170221 1.0096811
1.6712555 -0.18174811 1.0096499
1.6717432 -0.18172267 1.0097029
1.6722628 -0.18171494 1.0097299
1.6727558 -0.18169053 1.0097921
1.6732227 -0.18171719 1.0097952
1.6737475 -0.18172021 1.009811
1.6742444 -0.18171832 1.0098153
1.6747379 -0.18167421 1.0098418
1.6752343 -0.18167213 1.0098531
1.6757429 -0.18171959 1.0098324
1.6762426 -0.18173376 1.0098547
1.6767378 -0.18179898 1.0098498
1.6772408 -0.18177977 1.0098934
1.6777657 -0.18176989 1.0099149
1.6782616 -0.18174699 1.0099139
1.678758 -0.18172379 1.0098965
1.679251 -0.181701 1.0099539
1.6796815 -0.18169929 1.0099856
1.680898 -0.1817555 1.009964
1.681228 -0.18174025 1.009975
1.6815031 -0.18172701 1.009982
1.691413 -0.181632 1.009971
1.6917588 -0.1817268 1.0099336
1.6922588 -0.18170388 1.0098813
1.6927392 -0.18166934 1.0097615
1.6931343 -0.18168579 1.0096
1.660484 -0.18126699 1.0095021
1.6607596 -0.18125376 1.009516
1.6612557 -0.18123081 1.0095342
1.6617517 -0.18120749 1.0095477
1.662273 -0.18124586 1.0095607
1.6627465 -0.18127075 1.0095699
1.663256 -0.18124691 1.0095924
1.6637522 -0.18122375 1.0096087
1.6642798 -0.18124723 1.0096009
1.6647525 -0.18127334 1.0095819
1.6652483 -0.18125014 1.0096172
1.6657635 -0.18121032 1.0096395
1.6662387 -0.18127865 1.0096556
1.6667476 -0.18128276 1.0096813
1.6672436 -0.18126002 1.0096706
1.6677397 -0.18123676 1.0096581
1.6682402 -0.18129286 1.009672
1.6687361 -0.18129686 1.009746
1.6692303 -0.18124653 1.0097617
1.6697466 -0.18123601 1.0097567
1.6702391 -0.18121247 1.0097768
1.6707381 -0.18120259 1.0097899
1.6712744 -0.18126579 1.0097661
1.6717687 -0.18122201 1.009775
1.6722656 -0.18121967 1.0097935
1.6727579 -0.18117556 1.0098524
1.67328 -0.18125293 1.0098797
1.6737483 -0.18123531 1.0098356
1.6742436 -0.18124266 1.0098684
1.6747049 -0.1812474 1.0099162
1.6752337 -0.1812844 1.0099382
1.6757332 -0.18126124 1.0098479
1.6762276 -0.18123829 1.0098788
1.6767704 -0.18129341 1.0098951
1.677261 -0.18128021 1.0099337
1.6777643 -0.18124722 1.0099566
1.6782596 -0.18124999 1.0099566
1.6786791 -0.18114115 1.0099452
1.680907 -0.18149251 1.009958
1.6811819 -0.18148002 1.009971
1.681952 -0.181444 1.009994
1.691972 -0.18124101 1.009928
1.6922479 -0.18122825 1.009931
1.6927493 -0.18120499 1.0098668
1.693266 -0.18118149 1.0096282
1.6618117 -0.18095234 1.0095043
1.6622527 -0.180932 1.0095176
1.6627486 -0.1809085 1.0095363
1.6632445 -0.1808856 1.0095549
1.6637403 -0.1808625 1.0095718
1.6642363 -0.1808392 1.0095872
1.6647326 -0.1808165 1.0095389
1.6652282 -0.180793 1.0095528
1.6657794 -0.1807674 1.0095739
1.6662965 -0.18085174 1.0096259
1.6667683 -0.1808476 1.0096492
1.6672642 -0.1808245 1.0096505
1.6677598 -0.1808015 1.0096699
1.6682554 -0.18077813 1.0096884
1.6687502 -0.1807552 1.00974
1.6692457 -0.180732 1.0097666
1.6697419 -0.18070891 1.0097493
1.6702369 -0.18068588 1.0097873
1.6707548 -0.18069291 1.009824
1.6712568 -0.18075415 1.0098591
1.6717629 -0.18086289 1.0098535
1.6722618 -0.18081513 1.0098422
1.6727549 -0.1808168 1.009854
1.6732522 -0.180769 1.0098759
1.6737449 -0.18077046 1.0098873
1.6742432 -0.180723 1.0099082
1.674762 -0.18079184 1.0099285
1.6752508 -0.18077032 1.0099292
1.6757457 -0.18085875 1.0099089
1.6762718 -0.18075475 1.0099158
1.6767806 -0.18068886 1.0099285
1.6772397 -0.1808041 1.0099041
1.6777608 -0.180859 1.009961
1.6782022 -0.1808385 1.0099313
1.6788352 -0.18078923 1.0099562
1.6791842 -0.18081458 1.0099634
1.691981 -0.180978 1.009925
1.6922486 -0.18078339 1.0099649
1.6927514 -0.18076165 1.00989
1.693216 -0.18072291 1.0096767
1.693556 -0.180553 1.0095021
1.665471 -0.18014801 1.009508
1.665581 -0.180143 1.009511
1.6668479 -0.1800835 1.0095515
1.6672343 -0.180066 1.009536
1.6677303 -0.18004274 1.0095203
1.6682597 -0.18014516 1.0095277
1.6687475 -0.18030599 1.0095345
1.6692561 -0.18030332 1.0095696
1.6697468 -0.18025269 1.0095543
1.6702721 -0.18024211 1.0095904
1.6707674 -0.18021913 1.0096073
1.6712621 -0.18019591 1.0096475
1.6717461 -0.18029475 1.0096788
1.6722621 -0.18025467 1.0096812
1.672736 -0.18027882 1.0097176
1.6732552 -0.18032391 1.0097599
1.6737499 -0.18030089 1.0097716
1.6742451 -0.18027781 1.0097932
1.6747413 -0.18025462 1.0097855
1.675236 -0.1802316 1.0098175
1.6757603 -0.18019657 1.0098282
1.676268 -0.1801835 1.0098327
1.6767509 -0.18015045 1.0098498
1.6772487 -0.18020955 1.0099049
1.6777655 -0.1801136 1.0099099
1.6782688 -0.18023752 1.0099571
1.6787319 -0.18029001 1.0099701
1.679101 -0.18014599 1.0099519
1.679981 -0.180105 1.009984
1.6802006 -0.180095 1.0099907
1.6919169 -0.18020099 1.009974
1.6922524 -0.18026856 1.0099784
1.6927559 -0.18026634 1.0099044
1.6932142 -0.18022172 1.0096879
1.664863 -0.179646 1.009516
1.6658335 -0.17972225 1.0095352
1.666406 -0.179574 1.009503
1.6667801 -0.17966086 1.0095304
1.6672914 -0.17977154 1.009521
1.667751 -0.17973606 1.0095307
1.6682585 -0.17980959 1.0095453
1.6687701 -0.17982656 1.0095637
1.6692548 -0.17980941 1.0095793
1.6697493 -0.1797903 1.0096009
1.6702585 -0.17975599 1.0096315
1.6707546 -0.17975102 1.0096236
1.67125 -0.17970994 1.0096427
1.6717457 -0.17970465 1.0096575
1.6722404 -0.1796639 1.0096748
1.6727493 -0.17969389 1.0096885
1.6732169 -0.17972095 1.0096949
1.6737552 -0.17970909 1.0097021
1.6742492 -0.1797118 1.0097126
1.674746 -0.17966285 1.0097127
1.6752445 -0.17967662 1.0097179
1.6757424 -0.17970751 1.0097122
1.6762682 -0.17973 1.0097296
1.6767622 -0.17972788 1.0097966
1.6772559 -0.17968376 1.0098195
1.6777521 -0.1796819 1.0098339
1.6782615 -0.17972659 1.0098243
1.6787448 -0.17975621 1.0098108
1.6792207 -0.17971891 1.00983
1.6797345 -0.17980079 1.0098878
1.6802295 -0.17977774 1.0099032
1.680724 -0.1797546 1.0099207
1.6810524 -0.17973951 1.0099455
1.6838579 -0.1797345 1.009976
1.6842432 -0.179717 1.0099831
1.6847391 -0.17969349 1.0099779
1.6860059 -0.179635 1.009974
1.6919889 -0.179546 1.009986
1.6922644 -0.17953351 1.00999
1.6927729 -0.17973109 1.0099434
1.6932665 -0.17986287 1.009717
1.693586 -0.179836 1.0095475
1.6608304 -0.179012 1.0095611
1.6612484 -0.17926873 1.0095711
1.6617523 -0.17929602 1.0096428
1.6622559 -0.17925251 1.009652
1.6627753 -0.17916851 1.0095668
1.663106 -0.1791535 1.0095074
1.6644191 -0.17935334 1.009532
1.6652552 -0.1790536 1.0095067
1.6657896 -0.17913456 1.0095148
1.666224 -0.1791777 1.0095279
1.6667343 -0.17921232 1.0095392
1.6672295 -0.179206 1.0095505
1.6677529 -0.1791735 1.0095748
1.668277 -0.17926423 1.0095818
1.6687723 -0.17923599 1.009603
1.669268 -0.17921814 1.0096183
1.6697495 -0.179206 1.0096346
1.6702582 -0.17927833 1.0096442
1.6707538 -0.17922622 1.0096604
1.6712493 -0.17923231 1.0096747
1.6717446 -0.17918001 1.0096904
1.6722401 -0.17918634 1.0097116
1.6727349 -0.179134 1.00973
1.6732556 -0.17930768 1.0097225
1.673735 -0.17935474 1.0097321
1.6742299 -0.179332 1.0097498
1.6747547 -0.1792938 1.0097709
1.6752628 -0.179318 1.009786
1.6757824 -0.17935266 1.0097938
1.6762571 -0.179353 1.0098017
1.6767529 -0.17932984 1.009807
1.6772486 -0.17930681 1.0098034
1.6777445 -0.17928374 1.0098015
1.678239 -0.17926076 1.009824
1.6787156 -0.17926477 1.0098308
1.6792791 -0.17931013 1.0098493
1.6797636 -0.17932363 1.0098959
1.6802584 -0.17929667 1.0099307
1.6806992 -0.17928058 1.0099053
1.684411 -0.1794565 1.0099705
1.6847996 -0.17922047 1.0099689
1.6852332 -0.17921831 1.009977
1.6856987 -0.17906474 1.0099943
1.686192 -0.17937367 1.0099601
1.6867781 -0.17934619 1.0099801
1.687108 -0.179331 1.009992
1.6889795 -0.17937 1.009982
1.6892544 -0.17935726 1.0099859
1.6897509 -0.17920801 1.0099846
1.690246 -0.17918475 1.0099949
1.6909115 -0.17915401 1.0099355
1.6912402 -0.17926501 1.0099468
1.6917412 -0.1792417 1.009882
1.6922423 -0.17921863 1.0098219
1.6927671 -0.17922311 1.0097554
1.6932129 -0.17933202 1.009644
1.693574 -0.179474 1.009506
1.660786 -0.17872524 1.0096549
1.6612418 -0.1788685 1.0099032
1.661767 -0.17896751 1.0099031
1.6622622 -0.17894481 1.0098686
1.6627636 -0.17878182 1.0097364
1.6631463 -0.17863315 1.0096269
1.664227 -0.17864874 1.0095028
1.6647602 -0.17868271 1.0095153
1.6652564 -0.1787035 1.0095286
1.6657522 -0.17868038 1.0095444
1.6662681 -0.17868836 1.0095587
1.6667435 -0.17875092 1.00957
1.6672223 -0.17874438 1.0095866
1.6677554 -0.1787999 1.0095983
1.668247 -0.17880423 1.0096132
1.6687469 -0.17875367 1.0096325
1.669238 -0.17875811 1.0096499
1.6697786 -0.17874509 1.0096686
1.6702604 -0.17880622 1.009642
1.6707551 -0.178755 1.0096774
1.6712502 -0.17876025 1.0097106
1.6717199 -0.17874424 1.0097018
1.6722453 -0.17881767 1.009729
1.6727408 -0.17877634 1.0097575
1.6732491 -0.17882675 1.0097177
1.6737306 -0.17881638 1.0097296
1.6742444 -0.17880408 1.0097529
1.6747565 -0.17875788 1.009766
1.6752713 -0.17874494 1.0097892
1.6757655 -0.17872225 1.0098155
1.6762614 -0.17869879 1.0098131
1.6767569 -0.17867625 1.0098203
1.6772267 -0.1787166 1.0098566
1.6777444 -0.17870031 1.0098444
1.6782387 -0.17869398 1.0098618
1.6787647 -0.17871599 1.009874
1.6792295 -0.17874964 1.0098845
1.6797432 -0.17872868 1.0099019
1.6802737 -0.17870644 1.0099427
1.6806602 -0.178754 1.0098956
1.6853503 -0.178936 1.0099814
1.685735 -0.1789185 1.009995
1.6904171 -0.178701 1.0099781
1.6907817 -0.17878801 1.0099875
1.6912754 -0.17879513 1.0099555
1.6917558 -0.17875651 1.0099159
1.6922442 -0.17874855 1.0098627
1.6927464 -0.17871077 1.0097654
1.6931502 -0.17870322 1.0096219
1.6603172 -0.178253 1.0095842
1.6606581 -0.17831515 1.0097517
1.6632694 -0.17817651 1.0096622
1.663812 -0.17814934 1.0095096
1.6642365 -0.17826594 1.0095192
1.6647475 -0.17834449 1.0095302
1.6652434 -0.17832141 1.0095509
1.6657677 -0.17830989 1.0095676
1.6662614 -0.17826121 1.0095831
1.666759 -0.17826377 1.0096014
1.6672753 -0.1782434 1.0096192
1.6677516 -0.17829964 1.0096344
1.6682458 -0.17827365 1.00965
1.6687428 -0.17825355 1.0096662
1.6692369 -0.17822751 1.009683
1.6697159 -0.17824629 1.0096867
1.6702334 -0.17829554 1.0097139
1.6707294 -0.1782541 1.0097293
1.6712242 -0.17824945 1.0097454
1.671773 -0.17826258 1.0097635
1.6722586 -0.1782743 1.0097787
1.6727531 -0.17827788 1.0097487
1.6732694 -0.17824207 1.0097393
1.6737632 -0.17821714 1.0097524
1.6742599 -0.17819592 1.0097754
1.6747382 -0.17822501 1.0097836
1.6752511 -0.17824955 1.0098211
1.6757449 -0.17820366 1.0098168
1.6762422 -0.17820342 1.0098323
1.6767346 -0.17815754 1.0098759
1.6772732 -0.17824414 1.0098932
1.6777538 -0.1782385 1.009878
1.6782167 -0.17827186 1.0098892
1.6787345 -0.1783025 1.0099008
1.6792294 -0.1782793 1.0099189
1.6797541 -0.17824134 1.0099382
1.6802455 -0.17824566 1.0099385
1.6807047 -0.17830901 1.0098473
1.6908821 -0.17826168 1.0099688
1.6912367 -0.17824781 1.0099748
1.6917311 -0.1782809 1.0099188
1.692228 -0.17822857 1.0099056
1.6927354 -0.17823467 1.0097725
1.6931945 -0.17818044 1.0095661
1.659956 -0.177852 1.0095505
1.660202 -0.17783524 1.0097078
1.6633024 -0.17782901 1.0096067
1.6637987 -0.1778065 1.0095105
1.6642866 -0.17782821 1.009529
1.664742 -0.177862 1.0095465
1.6652395 -0.17786367 1.0095655
1.6657337 -0.17781578 1.0095823
1.6662577 -0.17780399 1.0096002
1.6667534 -0.17778063 1.0096186
1.6672493 -0.1777579 1.0096333
1.6677731 -0.17774566 1.0096539
1.6682674 -0.17769787 1.0096693
1.6687646 -0.17769966 1.0096834
1.6692595 -0.17765188 1.0096508
1.6697897 -0.17773792 1.0096821
1.6702398 -0.17773724 1.0097328
1.6707617 -0.17782831 1.0097246
1.6712575 -0.17780513 1.0097256
1.6717523 -0.17778221 1.0097686
1.6722487 -0.17775899 1.0097443
1.6727448 -0.17773619 1.0097431
1.6732399 -0.17771301 1.0097606
1.6737353 -0.17769 1.0097911
1.67426 -0.177652 1.0098044
1.6747653 -0.17773992 1.00981
1.6752145 -0.17780274 1.0098228
1.6757323 -0.17782077 1.0098373
1.6762561 -0.1778091 1.0098562
1.6767511 -0.17778613 1.009874
1.6772455 -0.17776303 1.0099057
1.6777694 -0.17775133 1.0099102
1.6782916 -0.17777476 1.0099225
1.6787603 -0.17778748 1.0099385
1.6792538 -0.17776133 1.0099549
1.6797497 -0.1777415 1.0099738
1.6802118 -0.1777321 1.0099816
1.6806778 -0.17784226 1.009918
1.691398 -0.177999 1.009992
1.6917722 -0.17778377 1.0099458
1.6922477 -0.17777169 1.0099322
1.6927359 -0.17776161 1.0098151
1.6932211 -0.17774567 1.009639
1.659405 -0.177027 1.00956
1.6596543 -0.1771578 1.0096364
1.6692065 -0.17718899 1.0095117
1.669752 -0.1772335 1.0095279
1.6702833 -0.17728218 1.0095766
1.6707128 -0.17743781 1.0097135
1.6712644 -0.17725155 1.0096214
1.6717583 -0.1772107 1.0096203
1.6722519 -0.1772155 1.0096207
1.6727463 -0.17725681 1.0096519
1.6732619 -0.17723602 1.0096565
1.6737591 -0.17723922 1.0096964
1.6742522 -0.17718978 1.0096925
1.6747501 -0.17719288 1.0097312
1.6752768 -0.17723076 1.0097574
1.6757473 -0.17724732 1.0097952
1.6762255 -0.17731671 1.0098904
1.6767452 -0.17730367 1.0098901
1.6772418 -0.17730533 1.0099083
1.6777352 -0.17725766 1.0099252
1.6782583 -0.1772456 1.0099421
1.6787537 -0.17722273 1.0099564
1.6792492 -0.1771996 1.0099634
1.6797462 -0.17717674 1.0099361
1.680088 -0.17719766 1.0099437
1.6808698 -0.17732434 1.009937
1.691485 -0.17738099 1.009961
1.6919556 -0.177277 1.009979
1.6922588 -0.17727157 1.0099733
1.6927685 -0.17723012 1.0098233
1.6932626 -0.17724879 1.0096476
1.69357 -0.17712 1.009519
1.6593857 -0.17668936 1.009557
1.6678098 -0.17666367 1.0095085
1.6682816 -0.1767565 1.0095172
1.668726 -0.17678827 1.0095258
1.6692276 -0.17678709 1.0095432
1.6697031 -0.17670244 1.0095423
1.6702952 -0.17660499 1.0095237
1.6707287 -0.17673139 1.0095264
1.671258 -0.17673557 1.0095448
1.6717511 -0.17673534 1.0095522
1.6722493 -0.17668946 1.009571
1.6727662 -0.17678092 1.0095818
1.6732466 -0.17674316 1.0095994
1.6737415 -0.17675029 1.0096205
1.6742396 -0.1767123 1.0096323
1.6747566 -0.17680311 1.009644
1.6752545 -0.17675622 1.0096633
1.6757474 -0.17675711 1.0096785
1.6762555 -0.17679663 1.0096912
1.6767505 -0.1768028 1.0097077
1.6772634 -0.17675187 1.0097282
1.6777593 -0.17675555 1.0097439
1.6782538 -0.17670578 1.0097522
1.6787356 -0.17674854 1.0097166
1.679257 -0.17676131 1.0097222
1.679751 -0.17675668 1.0097381
1.6802446 -0.17671521 1.0098037
1.6807117 -0.17670263 1.0098145
1.686398 -0.1765205 1.009964
1.686673 -0.176507 1.0099657
1.6917645 -0.1768804 1.0099853
1.6922791 -0.17690933 1.0099806
1.6927433 -0.17680687 1.0098611
1.6932529 -0.17678343 1.0097078
1.6935995 -0.1767675 1.0095274
1.6589125 -0.1761215 1.0095255
1.6591406 -0.17628101 1.0095648
1.666826 -0.17601749 1.0095096
1.6671896 -0.17628483 1.0095072
1.6677535 -0.17633881 1.0095266
1.6682225 -0.17633373 1.0095413
1.6687241 -0.17641 1.0095537
1.6693158 -0.17624971 1.0095075
1.6697644 -0.17623232 1.0095235
1.67026 -0.17623478 1.0095986
1.6707828 -0.1762629 1.0095537
1.6712515 -0.17627667 1.0095676
1.671746 -0.17625135 1.0095917
1.6722424 -0.17623061 1.0096039
1.6727171 -0.17629179 1.0096148
1.6732364 -0.17628102 1.0096323
1.6737306 -0.17627789 1.0096413
1.6742728 -0.17626637 1.0096664
1.6747444 -0.17630818 1.0096791
1.6752397 -0.17628486 1.0096962
1.6757548 -0.1762474 1.009714
1.6762472 -0.17625065 1.0097306
1.6767628 -0.17621367 1.0097489
1.6772565 -0.17619123 1.009766
1.6777531 -0.17626634 1.0097752
1.6782467 -0.17622454 1.0097799
1.6787622 -0.1762701 1.009771
1.6792339 -0.17628486 1.0097793
1.6797507 -0.17627306 1.0097706
1.6802423 -0.17622301 1.0097828
1.6807035 -0.17621565 1.0097834
1.6867609 -0.17626992 1.0099846
1.6872011 -0.17635417 1.009989
1.6877571 -0.1763812 1.0099875
1.6882781 -0.17621608 1.0099531
1.6887428 -0.17624445 1.009964
1.6892399 -0.17620838 1.0099798
1.6897614 -0.17629068 1.0099574
1.6902611 -0.1762491 1.0099236
1.6907594 -0.17624445 1.0098757
1.6912565 -0.17620298 1.0098734
1.6917543 -0.17619808 1.0098389
1.6922899 -0.17621483 1.0098032
1.6927682 -0.17624678 1.0096982
1.6931756 -0.17629388 1.0096469
1.693522 -0.17642599 1.009531
1.6588206 -0.17586067 1.0095336
1.659005 -0.175983 1.009601
1.6654414 -0.17574635 1.0095043
1.6657525 -0.17574209 1.0095149
1.6662707 -0.17569119 1.0095255
1.6667656 -0.17566949 1.0095423
1.6672407 -0.17565165 1.0095425
1.6677792 -0.17570187 1.0095587
1.6682427 -0.17568305 1.0095644
1.6687723 -0.17567392 1.0095357
1.6692266 -0.17568718 1.0095807
1.6697419 -0.17570682 1.0095675
1.6702384 -0.17568183 1.0095812
1.6707056 -0.17570674 1.0095921
1.6712337 -0.17570756 1.009611
1.6717291 -0.17570545 1.009626
1.6722519 -0.1756705 1.0096468
1.6727787 -0.1757441 1.0096565
1.673257 -0.17573632 1.0096695
1.6737324 -0.17573307 1.0096689
1.6742668 -0.17579488 1.0096767
1.6747618 -0.1757715 1.0097085
1.675257 -0.17574859 1.0097252
1.675752 -0.17572552 1.0097409
1.676247 -0.17570241 1.0097584
1.676742 -0.17567952 1.0097758
1.6772374 -0.1756561 1.0097917
1.6777396 -0.17577018 1.009806
1.6782404 -0.17583735 1.0097904
1.6787392 -0.17584001 1.0097681
1.6792308 -0.17579122 1.0098187
1.6797529 -0.17577963 1.0098553
1.6802487 -0.17575663 1.0098519
1.6806852 -0.175786 1.0099132
1.6878116 -0.17573065 1.0099744
1.6882584 -0.17575757 1.0099847
1.688763 -0.17582899 1.0099919
1.689456 -0.176 1.009997
1.689917 -0.17571867 1.0099506
1.6902412 -0.1757717 1.0099244
1.6907402 -0.17574719 1.0099077
1.691234 -0.17572567 1.0099076
1.6917357 -0.17570078 1.0098617
1.6922072 -0.17573063 1.0097773
1.6927465 -0.17573489 1.0096623
1.6931113 -0.17572926 1.0095761
1.658486 -0.175001 1.009582
1.658679 -0.175469 1.009558
1.663426 -0.175467 1.009529
1.6653001 -0.17537999 1.0095164
1.6657404 -0.17535959 1.0095367
1.6662571 -0.17524201 1.0095409
1.6667284 -0.1752046 1.0095679
1.6672546 -0.17516801 1.0095872
1.6677613 -0.17525017 1.0095438
1.6682643 -0.17524602 1.0095538
1.6687373 -0.17526831 1.0095609
1.669281 -0.17534201 1.0095756
1.6697493 -0.17535233 1.0095799
1.6702451 -0.17532939 1.0095969
1.6707592 -0.17534339 1.0096146
1.6712458 -0.17533021 1.0096309
1.6717559 -0.17530669 1.0096502
1.6722496 -0.1752833 1.0096644
1.672761 -0.17526443 1.0096815
1.673254 -0.17523207 1.0096945
1.673775 -0.17529809 1.0096855
1.6742556 -0.17532074 1.0097026
1.6747513 -0.17529634 1.0097481
1.6752458 -0.17527463 1.0097641
1.6757421 -0.1752501 1.00977
1.6762367 -0.17522866 1.0097743
1.6767453 -0.17520393 1.0098127
1.6772548 -0.17517294 1.0098344
1.6777475 -0.17516394 1.0098499
