0.11723006 0.04476100 0.08517605
0.11758399 0.04494700 0.08505994
0.12899101 0.04491200 0.08504802
0.12928307 0.04483201 0.08529001
0.12965107 0.04476300 0.08543903
0.11436605 0.04527000 0.08508295
0.11475599 0.04525100 0.08521801
0.11525607 0.04527900 0.08532900
0.11574399 0.04530901 0.08545500
0.11624503 0.04532601 0.08547503
0.11672699 0.04532300 0.08541602
0.11725104 0.04532400 0.08519894
0.11759806 0.04529901 0.08502895
0.12924600 0.04526700 0.08525401
0.12959909 0.04523000 0.08548898
0.11441910 0.04575600 0.08505899
0.11476099 0.04576001 0.08525902
0.11525106 0.04569300 0.08534700
0.11573803 0.04570301 0.08545893
0.11606205 0.04574300 0.08549696
0.11685801 0.04561101 0.08543605
0.11725605 0.04569800 0.08529800
0.11762309 0.04573300 0.08511001
0.12898803 0.04594900 0.08516103
0.12924099 0.04585901 0.08530396
0.12960410 0.04569800 0.08543199
0.11438608 0.04623400 0.08504695
0.11473107 0.04627700 0.08522898
0.11524510 0.04621400 0.08537501
0.11573708 0.04638501 0.08540899
0.11625910 0.04647900 0.08542699
0.11680210 0.04629000 0.08546001
0.11725903 0.04619800 0.08535701
0.11771405 0.04624200 0.08507901
0.12929308 0.04623500 0.08527094
0.12963605 0.04621600 0.08545893
0.11446106 0.04663500 0.08500999
0.11475503 0.04675800 0.08511204
0.11523807 0.04675901 0.08522302
0.11575401 0.04679400 0.08531803
0.11624110 0.04681700 0.08540100
0.11675799 0.04676300 0.08536094
0.11724508 0.04676600 0.08519405
0.11756599 0.04654001 0.08505303
0.12927806 0.04674400 0.08532494
0.11445904 0.04702200 0.08503395
0.11475205 0.04724300 0.08511204
0.11527503 0.04728200 0.08523995
0.11574399 0.04720500 0.08533305
0.11624801 0.04721801 0.08538097
0.11673605 0.04721801 0.08536404
0.11722708 0.04726300 0.08518595
0.11761308 0.04737000 0.08500594
0.12927306 0.04720300 0.08520597
0.12970710 0.04730400 0.08544594
0.13299501 0.04749700 0.08541900
0.11477506 0.04775000 0.08509201
0.11523402 0.04776201 0.08523303
0.11576402 0.04772900 0.08536500
0.11625803 0.04772100 0.08543295
0.11674607 0.04774600 0.08540195
0.11723602 0.04776600 0.08526701
0.11765003 0.04788300 0.08508700
0.12927806 0.04771501 0.08525699
0.12965703 0.04762100 0.08545297
0.11475599 0.04830600 0.08514005
0.11523402 0.04826500 0.08526999
0.11575806 0.04829301 0.08539397
0.11617410 0.04821301 0.08548003
0.11677706 0.04836500 0.08545595
0.11726105 0.04837500 0.08531803
0.11762810 0.04829401 0.08508903
0.12929308 0.04821000 0.08520299
0.12965310 0.04820201 0.08543700
0.11480904 0.04880200 0.08514398
0.11525106 0.04873000 0.08525199
0.11573505 0.04875301 0.08539695
0.11621904 0.04874200 0.08544904
0.11676502 0.04868001 0.08546394
0.11725008 0.04872601 0.08539003
0.11774004 0.04867001 0.08511800
0.11800206 0.04885601 0.08500594
0.12934303 0.04874600 0.08524901
0.12955010 0.04875600 0.08544296
0.11444807 0.04910600 0.08500296
0.11479902 0.04921500 0.08516198
0.11526203 0.04924800 0.08530599
0.11574900 0.04927100 0.08541995
0.11624706 0.04919401 0.08548194
0.11681306 0.04919501 0.08548802
0.11728203 0.04925901 0.08539695
0.11775601 0.04924901 0.08514494
0.12934101 0.04919600 0.08522397
0.12960005 0.04925801 0.08548599
0.11477709 0.04985601 0.08510703
0.11524510 0.04986300 0.08527404
0.11573100 0.04988600 0.08540994
0.11613500 0.04980300 0.08546799
0.11689305 0.04983801 0.08549899
0.11721909 0.04985300 0.08545202
0.11776507 0.04987800 0.08518904
0.12933302 0.04970101 0.08528095
0.12954199 0.04971100 0.08544797
0.13318706 0.04991300 0.08543104
0.11476600 0.05026300 0.08513802
0.11525500 0.05031100 0.08534604
0.11570501 0.05027300 0.08545095
0.11624801 0.05001201 0.08549196
0.11739409 0.05015400 0.08546501
0.11775208 0.05019300 0.08525795
0.11810005 0.05026400 0.08507401
0.12935805 0.05017100 0.08528394
0.12957799 0.05001700 0.08540303
0.13321304 0.05018601 0.08539099
0.11486804 0.05070500 0.08505994
0.11523604 0.05069700 0.08519298
0.11575210 0.05073200 0.08529705
0.11618805 0.05077301 0.08538502
0.11677909 0.05083100 0.08543998
0.11724007 0.05079100 0.08539695
0.11772907 0.05070400 0.08522004
0.11812401 0.05060801 0.08503395
0.12943602 0.05062500 0.08518797
0.12960899 0.05072200 0.08538705
0.13328302 0.05065100 0.08545095
0.11485207 0.05126600 0.08505005
0.11525905 0.05124600 0.08516401
0.11574602 0.05123600 0.08528894
0.11620510 0.05125700 0.08539099
0.11674809 0.05119000 0.08542305
0.11726511 0.05120200 0.08531898
0.11770105 0.05124900 0.08511597
0.12945902 0.05126201 0.08524305
0.12969601 0.05136800 0.08537394
0.13012302 0.05148101 0.08549100
0.13328707 0.05126600 0.08537704
0.11486101 0.05174901 0.08500904
0.11522102 0.05180401 0.08515698
0.11576200 0.05182900 0.08530194
0.11627805 0.05178300 0.08538800
0.11674106 0.05175601 0.08544403
0.11726999 0.05167900 0.08537394
0.11776006 0.05167401 0.08512598
0.11804307 0.05182201 0.08503896
0.12942004 0.05181500 0.08510500
0.12973404 0.05178200 0.08534795
0.13005400 0.05170000 0.08548099
0.13293600 0.05172300 0.08545703
0.13320100 0.05171300 0.08522505
0.11489201 0.05228600 0.08507997
0.11525202 0.05225800 0.08519799
0.11575210 0.05230400 0.08533198
0.11624300 0.05231000 0.08542305
0.11676610 0.05225900 0.08546501
0.11725903 0.05223501 0.08540505
0.11774909 0.05226101 0.08519405
0.11810410 0.05236199 0.08502799
0.12946808 0.05211200 0.08516198
0.12974203 0.05225900 0.08532304
0.13289309 0.05219801 0.08538300
0.13315809 0.05217300 0.08518499
0.11495900 0.05279700 0.08503896
0.11525905 0.05280900 0.08520800
0.11572301 0.05278800 0.08531898
0.11620903 0.05277100 0.08544701
0.11726511 0.05271201 0.08548099
0.11775506 0.05276500 0.08530694
0.11817610 0.05276901 0.08505803
0.12978709 0.05274400 0.08527702
0.13004410 0.05284901 0.08546394
0.13286602 0.05275400 0.08541495
0.13318908 0.05272900 0.08522195
0.11484110 0.05340800 0.08502704
0.11521900 0.05342700 0.08525199
0.11577606 0.05325601 0.08538097
0.11620009 0.05317800 0.08546096
0.11655509 0.05304800 0.08546799
0.11725903 0.05308001 0.08549005
0.11774909 0.05310200 0.08535296
0.11818802 0.05312200 0.08509701
0.12980700 0.05314100 0.08531600
0.13010800 0.05332500 0.08546001
0.13295710 0.05316000 0.08543998
0.13323402 0.05326600 0.08529204
0.11490703 0.05378400 0.08507401
0.11521900 0.05373000 0.08526498
0.11572599 0.05372000 0.08538896
0.11606002 0.05382501 0.08549303
0.11749411 0.05353300 0.08545297
0.11776304 0.05372500 0.08538896
0.11822510 0.05377500 0.08512205
0.12982309 0.05359000 0.08527905
0.13000906 0.05352600 0.08543199
0.13326907 0.05374201 0.08528203
0.13354111 0.05383500 0.08521003
0.11485004 0.05433801 0.08508795
0.11525500 0.05425701 0.08530599
0.11568999 0.05420800 0.08539802
0.11779499 0.05419001 0.08540004
0.11825907 0.05427200 0.08515304
0.11852801 0.05415700 0.08500594
0.12982309 0.05426700 0.08529395
0.13005900 0.05429600 0.08549196
0.13300002 0.05425300 0.08549005
0.13328600 0.05434300 0.08532101
0.13357604 0.05445801 0.08513802
0.11493707 0.05469900 0.08510703
0.11524510 0.05475000 0.08522397
0.11570108 0.05476500 0.08534104
0.11617005 0.05490200 0.08535701
0.11725199 0.05495200 0.08546597
0.11780608 0.05483800 0.08532697
0.11822009 0.05476700 0.08518094
0.11860502 0.05474201 0.08508104
0.12978303 0.05479500 0.08532697
0.13001299 0.05469200 0.08549494
0.13329208 0.05473401 0.08537096
0.13357604 0.05474700 0.08516604
0.11494303 0.05526701 0.08505696
0.11524999 0.05515701 0.08514398
0.11576402 0.05516800 0.08530599
0.11620510 0.05518401 0.08538204
0.11727202 0.05523400 0.08546001
0.11774206 0.05527401 0.08527201
0.11812508 0.05529100 0.08505398
0.12982309 0.05521001 0.08541995
0.13329208 0.05527200 0.08541197
0.13357699 0.05535001 0.08522195
0.11492407 0.05566400 0.08504897
0.11524606 0.05567901 0.08519405
0.11575210 0.05571400 0.08535296
0.11613607 0.05572100 0.08545095
0.11741507 0.05562600 0.08549994
0.11777008 0.05578400 0.08533901
0.11822104 0.05584200 0.08510095
0.12983799 0.05573601 0.08521205
0.13016605 0.05571300 0.08545703
0.13291109 0.05573800 0.08543295
0.13324308 0.05579200 0.08525997
0.13362908 0.05570100 0.08504301
0.11498308 0.05622800 0.08502001
0.11524904 0.05615000 0.08518201
0.11573601 0.05619100 0.08536798
0.11611402 0.05618300 0.08542901
0.11781204 0.05625100 0.08539003
0.11823308 0.05630700 0.08516401
0.11857903 0.05634101 0.08505994
0.12983799 0.05627000 0.08531100
0.13010204 0.05632000 0.08546096
0.13292909 0.05622600 0.08541101
0.13324010 0.05625300 0.08523899
0.13355708 0.05613200 0.08503598
0.11492205 0.05658801 0.08508998
0.11523604 0.05672000 0.08526999
0.11574209 0.05672900 0.08542103
0.11787605 0.05670901 0.08542305
0.11825502 0.05675200 0.08520395
0.11861205 0.05675900 0.08505803
0.12988806 0.05670600 0.08521599
0.13017011 0.05674100 0.08541995
0.13297606 0.05650601 0.08548194
0.13324499 0.05671300 0.08533901
0.13360703 0.05667400 0.08511096
0.11524904 0.05720800 0.08523804
0.11573303 0.05725400 0.08542496
0.11601400 0.05714901 0.08544594
0.11790407 0.05710100 0.08544093
0.11825705 0.05724001 0.08529097
0.11866605 0.05732100 0.08510202
0.12983799 0.05728200 0.08522993
0.13009810 0.05729501 0.08544904
0.13326705 0.05719900 0.08539194
0.13361704 0.05720700 0.08515602
0.11495709 0.05780201 0.08503300
0.11526799 0.05774100 0.08527404
0.11572802 0.05770300 0.08544701
0.11826909 0.05778000 0.08535796
0.11870611 0.05779999 0.08516997
0.12986302 0.05767000 0.08516198
0.13015306 0.05773900 0.08541697
0.13333702 0.05774501 0.08539099
0.13366508 0.05778700 0.08516496
0.11495507 0.05814900 0.08503395
0.11525309 0.05824600 0.08526999
0.11566806 0.05825000 0.08548397
0.11834002 0.05825201 0.08542401
0.11875105 0.05828100 0.08520800
0.12991309 0.05816500 0.08518404
0.13014603 0.05822900 0.08538598
0.13336408 0.05832100 0.08541304
0.13367903 0.05829701 0.08529896
0.11495304 0.05853701 0.08505803
0.11525500 0.05866501 0.08523804
0.11570406 0.05872700 0.08542305
0.11602306 0.05894300 0.08549303
0.11836207 0.05873901 0.08540004
0.11874008 0.05874400 0.08524495
0.11903107 0.05860300 0.08502096
0.12992907 0.05871700 0.08519000
0.13011408 0.05875200 0.08539397
0.13339007 0.05863000 0.08545703
0.13374901 0.05866601 0.08529299
0.11528301 0.05919801 0.08515805
0.11574507 0.05923401 0.08536094
0.11617506 0.05935401 0.08548898
0.11797309 0.05903400 0.08547801
0.11824107 0.05926301 0.08534604
0.11868501 0.05926800 0.08511204
0.12993705 0.05923401 0.08520597
0.13016403 0.05920000 0.08535200
0.13345504 0.05919400 0.08544904
0.13373709 0.05926800 0.08534104
0.13401306 0.05930100 0.08508199
0.11524999 0.05978300 0.08517295
0.11562705 0.05980200 0.08539099
0.11834908 0.05983700 0.08542198
0.11873400 0.05985500 0.08518296
0.12994504 0.05979100 0.08511597
0.13018906 0.05971301 0.08534402
0.13329506 0.05975901 0.08538395
0.13370001 0.05975300 0.08517903
0.11529100 0.06017900 0.08517605
0.11569810 0.06018201 0.08539397
0.11834300 0.06019400 0.08541495
0.11874306 0.06024000 0.08522505
0.11903501 0.06035300 0.08511299
0.12997103 0.06037501 0.08504397
0.13025999 0.06017200 0.08535296
0.13064301 0.06002600 0.08549494
0.13325000 0.06014700 0.08541602
0.13370001 0.06016801 0.08514100
0.11532903 0.06064900 0.08519202
0.11570609 0.06066700 0.08540303
0.11836505 0.06065900 0.08543497
0.11874402 0.06080800 0.08529299
0.11907411 0.06082300 0.08508903
0.12994111 0.06055700 0.08510405
0.13022399 0.06079100 0.08537096
0.13333702 0.06068600 0.08545893
0.13375306 0.06073600 0.08526200
0.11530304 0.06127400 0.08518904
0.11566305 0.06126700 0.08543903
0.11848605 0.06132300 0.08546096
0.11875999 0.06133500 0.08531600
0.11906707 0.06131700 0.08513302
0.13026810 0.06132500 0.08538896
0.13347602 0.06125100 0.08546704
0.13375807 0.06126400 0.08529800
0.13403809 0.06127600 0.08514100
0.11533701 0.06175300 0.08516294
0.11566210 0.06174700 0.08539301
0.11879301 0.06172200 0.08533603
0.11915708 0.06178501 0.08513600
0.13020110 0.06186700 0.08539099
0.13376606 0.06180400 0.08536702
0.13404202 0.06164900 0.08521205
0.11530006 0.06219500 0.08519000
0.11564410 0.06223300 0.08544403
0.11879003 0.06219900 0.08537298
0.11910605 0.06224200 0.08520705
0.13031399 0.06227200 0.08541101
0.13380504 0.06223400 0.08537596
0.13407207 0.06228000 0.08522803
0.11532307 0.06281100 0.08518499
0.11567903 0.06271500 0.08542901
0.11883307 0.06271600 0.08540899
0.11918306 0.06279501 0.08524901
0.13026202 0.06273900 0.08537799
0.13381302 0.06280200 0.08542305
0.13411009 0.06278700 0.08528000
0.11539102 0.06341600 0.08509797
0.11576807 0.06343500 0.08532900
0.11888599 0.06314300 0.08548695
0.11916101 0.06315400 0.08535796
0.13033307 0.06326300 0.08540601
0.13388801 0.06326200 0.08540303
0.13410103 0.06327100 0.08526701
0.11539710 0.06376200 0.08509904
0.11574805 0.06376300 0.08530301
0.11609805 0.06379500 0.08547598
0.11874199 0.06367500 0.08536702
0.11910403 0.06371100 0.08510596
0.13028109 0.06367000 0.08535296
0.13391709 0.06365401 0.08544499
0.13410902 0.06375501 0.08537704
0.11539602 0.06438100 0.08509201
0.11575103 0.06433900 0.08531696
0.11603010 0.06423500 0.08549899
0.11878502 0.06421200 0.08533996
0.11916900 0.06422900 0.08514100
0.13038206 0.06423500 0.08524901
0.13057804 0.06419000 0.08545095
0.13375902 0.06437200 0.08539802
0.13415205 0.06439000 0.08518702
0.11540210 0.06465400 0.08508295
0.11574399 0.06469300 0.08531398
0.11602008 0.06481601 0.08541697
0.11875808 0.06474900 0.08540195
0.11919308 0.06482000 0.08517295
0.13039410 0.06475201 0.08523601
0.13060009 0.06476200 0.08544093
0.13373303 0.06475601 0.08543605
0.13412702 0.06477400 0.08521694
0.11543810 0.06511100 0.08510000
0.11572599 0.06512700 0.08530897
0.11603904 0.06508701 0.08543795
0.11887801 0.06521101 0.08543700
0.11924005 0.06523600 0.08524603
0.13036609 0.06525100 0.08532304
0.13056803 0.06539501 0.08545095
0.13379109 0.06527200 0.08543605
0.13414109 0.06528100 0.08525199
0.11540103 0.06562700 0.08508104
0.11577702 0.06564500 0.08536500
0.11892807 0.06557600 0.08543295
0.11925101 0.06572600 0.08528095
0.13043404 0.06576400 0.08531004
0.13059902 0.06576400 0.08543700
0.13392305 0.06585200 0.08545798
0.13420200 0.06586400 0.08533198
0.11541402 0.06629501 0.08504897
0.11573708 0.06626800 0.08533496
0.11893404 0.06633300 0.08546299
0.11926103 0.06634800 0.08535594
0.11953700 0.06636000 0.08514398
0.13039505 0.06614100 0.08544201
0.13388908 0.06620600 0.08549100
0.13419807 0.06631801 0.08533198
0.11536503 0.06668800 0.08512002
0.11572802 0.06676600 0.08537704
0.11893201 0.06652300 0.08549494
0.11928308 0.06673000 0.08534998
0.11959100 0.06697100 0.08500904
0.13049209 0.06686901 0.08527094
0.13059103 0.06687400 0.08544701
0.13421106 0.06658600 0.08530599
0.11545610 0.06734400 0.08505005
0.11575603 0.06725900 0.08533400
0.11936700 0.06724000 0.08536297
0.11961508 0.06723600 0.08519202
0.13042104 0.06726300 0.08536094
0.13052309 0.06726800 0.08548898
0.13429105 0.06724000 0.08538800
0.13451409 0.06705500 0.08515805
0.11542904 0.06764600 0.08511502
0.11573005 0.06782100 0.08528894
0.11605906 0.06790500 0.08540601
0.11886609 0.06794700 0.08541900
0.11929405 0.06777100 0.08533198
0.11958301 0.06771800 0.08523399
0.13049603 0.06766300 0.08530504
0.13059008 0.06777200 0.08543402
0.13437307 0.06778301 0.08544499
0.13450706 0.06785000 0.08539099
0.11578107 0.06828200 0.08522993
0.11607599 0.06835600 0.08535105
0.11887610 0.06821600 0.08540303
0.11925507 0.06826800 0.08521897
0.11955810 0.06826900 0.08503801
0.13042402 0.06848400 0.08520204
0.13060904 0.06842300 0.08545405
0.13443208 0.06811500 0.08548599
0.13454604 0.06812100 0.08539099
0.11548102 0.06885100 0.08509904
0.11574399 0.06873100 0.08523101
0.11604607 0.06870100 0.08537298
0.11890006 0.06861901 0.08544403
0.11926401 0.06866700 0.08524197
0.11959410 0.06868200 0.08504695
0.13044500 0.06866400 0.08519405
0.13063502 0.06880800 0.08538598
0.13429403 0.06876700 0.08535296
0.13451707 0.06885301 0.08514804
0.11575210 0.06924500 0.08522803
0.11607409 0.06931900 0.08542103
0.11888909 0.06925100 0.08544797
0.11925805 0.06921500 0.08523804
0.11959100 0.06931300 0.08506697
0.13064802 0.06919700 0.08534104
0.13426805 0.06926600 0.08543700
0.13455403 0.06927900 0.08520395
0.11576700 0.06978900 0.08521599
0.11612904 0.06974300 0.08547503
0.11895108 0.06970600 0.08549494
0.11925507 0.06970700 0.08532804
0.11966705 0.06977700 0.08510596
0.13059199 0.06978500 0.08533102
0.13440204 0.06980000 0.08541399
0.13451910 0.06994100 0.08537894
0.11574209 0.07016201 0.08520502
0.11606205 0.07022000 0.08545202
0.11927199 0.07016300 0.08533198
0.11962199 0.07018900 0.08513194
0.13071799 0.07025300 0.08540195
0.13437605 0.07019100 0.08543605
0.13453507 0.07022700 0.08535701
0.11581409 0.07074700 0.08522695
0.11609805 0.07070800 0.08542901
0.11931407 0.07070900 0.08535296
0.11968601 0.07078201 0.08517796
0.13068700 0.07068000 0.08536905
0.13441205 0.07061100 0.08545500
0.13455904 0.07077301 0.08539599
0.11583006 0.07128700 0.08528298
0.11603510 0.07100100 0.08539695
0.11934805 0.07127100 0.08536905
0.11967599 0.07125200 0.08517903
0.13077903 0.07118700 0.08536798
0.13465607 0.07113200 0.08546704
0.11582708 0.07178600 0.08519703
0.11611104 0.07183700 0.08541495
0.11933410 0.07175800 0.08541304
0.11973906 0.07179000 0.08517402
0.11581302 0.07223900 0.08521098
0.11606002 0.07226800 0.08540696
0.11940908 0.07218900 0.08546299
0.11973906 0.07224301 0.08528894
0.12001407 0.07215900 0.08503693
0.13077402 0.07218800 0.08541495
0.13469911 0.07216500 0.08545703
0.11586809 0.07271400 0.08517402
0.11619103 0.07273000 0.08540899
0.11929309 0.07278300 0.08535498
0.11968303 0.07275701 0.08514494
0.13089406 0.07271101 0.08538800
0.11585200 0.07328800 0.08513302
0.11616302 0.07323501 0.08537298
0.11930001 0.07324800 0.08536404
0.11973608 0.07328900 0.08515102
0.12002003 0.07320701 0.08504397
0.13080001 0.07321400 0.08525795
0.13471508 0.07337300 0.08545893
0.11591208 0.07369800 0.08515495
0.11619902 0.07376100 0.08538896
0.11931205 0.07365000 0.08538705
0.11973107 0.07369401 0.08520705
0.12000203 0.07391100 0.08502704
0.13089204 0.07367800 0.08537894
0.13480902 0.07379800 0.08538598
0.11586905 0.07428100 0.08513099
0.11615908 0.07425100 0.08538002
0.11943209 0.07415200 0.08545703
0.11976802 0.07422100 0.08530504
0.12002504 0.07409600 0.08511096
0.13081801 0.07417000 0.08537096
0.13481200 0.07429601 0.08542603
0.11588109 0.07480101 0.08512205
0.11609304 0.07473500 0.08537394
0.11939406 0.07473500 0.08545595
0.11972809 0.07473700 0.08534998
0.12005901 0.07481800 0.08518296
0.13496208 0.07460700 0.08534700
0.11590099 0.07522700 0.08508903
0.11616910 0.07524000 0.08534294
0.11982501 0.07527900 0.08540398
0.12010300 0.07528900 0.08526593
0.13089406 0.07506701 0.08546895
0.13490307 0.07503400 0.08547801
0.11586809 0.07578000 0.08515495
0.11613309 0.07572200 0.08536595
0.11989903 0.07578800 0.08545798
0.12016702 0.07572901 0.08533794
0.11588907 0.07635200 0.08509904
0.11615705 0.07636600 0.08536702
0.12027800 0.07617401 0.08542699
0.13096607 0.07646900 0.08527905
0.13101602 0.07622100 0.08549803
0.11586499 0.07668500 0.08513397
0.11615503 0.07665500 0.08537096
0.11999309 0.07674600 0.08547598
0.12028611 0.07676500 0.08539301
0.13102400 0.07667200 0.08530098
0.11588001 0.07719900 0.08509403
0.11613905 0.07724100 0.08535200
0.11984801 0.07731700 0.08544296
0.12017608 0.07733200 0.08530694
0.13110900 0.07748301 0.08548099
0.11594999 0.07769800 0.08504802
0.11619008 0.07772100 0.08529097
0.11987507 0.07776700 0.08542997
0.12020206 0.07782100 0.08527499
0.13102508 0.07773400 0.08541495
0.11588800 0.07821400 0.08511895
0.11615610 0.07827500 0.08539003
0.11989403 0.07824800 0.08542699
0.12017500 0.07834600 0.08530098
0.13516104 0.07831500 0.08542198
0.11591899 0.07867200 0.08507603
0.11618102 0.07873100 0.08530897
0.12025607 0.07878900 0.08532196
0.11589003 0.07931300 0.08507496
0.11617208 0.07918900 0.08528000
0.12033701 0.07922900 0.08534402
0.11588109 0.07976800 0.08511597
0.11618102 0.07980200 0.08534402
0.12026608 0.07973600 0.08539802
0.13113511 0.07951100 0.08528394
0.11593211 0.08028600 0.08510703
0.11618006 0.08024700 0.08531195
0.12042809 0.08023300 0.08543605
0.13110399 0.08017300 0.08544797
0.11587107 0.08073800 0.08509094
0.11618102 0.08077201 0.08533400
0.12042701 0.08055000 0.08542901
0.12055099 0.08076500 0.08540004
0.11593306 0.08125700 0.08504897
0.11622810 0.08128100 0.08531302
0.12062407 0.08126600 0.08540803
0.11590707 0.08173400 0.08510703
0.11620104 0.08178400 0.08530504
0.12062907 0.08183900 0.08541399
0.11624610 0.08243100 0.08521301
0.11651409 0.08244400 0.08544797
0.12038100 0.08216500 0.08541495
0.12060010 0.08217500 0.08532399
0.11623502 0.08276100 0.08521396
0.11653507 0.08266200 0.08545202
0.12042701 0.08273500 0.08541995
0.12059104 0.08274201 0.08537096
0.11624300 0.08324400 0.08523804
0.11651111 0.08336201 0.08548898
0.12043810 0.08335900 0.08543199
0.12062299 0.08333400 0.08533305
0.11632407 0.08376900 0.08519500
0.11656702 0.08376500 0.08541602
0.12043500 0.08374200 0.08547002
0.12065411 0.08375200 0.08538300
0.11595809 0.08437400 0.08501905
0.11626709 0.08429600 0.08521599
0.11653101 0.08418901 0.08544201
0.12046111 0.08425600 0.08548397
0.12069809 0.08421100 0.08540505
0.11628509 0.08477800 0.08519298
0.11655307 0.08479100 0.08542794
0.12082005 0.08470100 0.08535701
0.13141310 0.08462700 0.08510095
0.11630809 0.08538301 0.08518797
0.11660099 0.08538200 0.08543104
0.12086809 0.08527701 0.08541995
0.13136101 0.08519001 0.08512598
0.11599708 0.08568400 0.08500499
0.11628807 0.08578300 0.08523804
0.11653209 0.08590800 0.08541805
0.12089610 0.08580000 0.08547503
0.11632502 0.08620200 0.08519799
0.11658704 0.08631600 0.08549601
0.11627603 0.08672900 0.08518595
0.11658204 0.08667700 0.08543497
0.12104201 0.08672600 0.08547205
0.11630499 0.08714900 0.08516496
0.11657310 0.08723100 0.08536202
0.12090909 0.08728100 0.08545893
0.13154209 0.08741100 0.08519000
0.11627007 0.08767800 0.08513504
0.11659205 0.08769301 0.08537894
0.12095809 0.08758600 0.08542901
0.12108302 0.08769600 0.08542305
0.11633110 0.08830200 0.08525199
0.11659908 0.08831500 0.08545595
0.12104905 0.08842000 0.08549100
0.13149607 0.08807500 0.08504194
0.13160002 0.08808000 0.08512205
0.11627710 0.08872700 0.08519298
0.11657202 0.08877900 0.08542997
0.12120700 0.08895800 0.08547896
0.13159108 0.08890800 0.08503395
0.11628211 0.08925200 0.08523196
0.11655009 0.08926500 0.08545893
0.12123108 0.08918800 0.08547300
0.11628008 0.08977000 0.08519596
0.11656904 0.08983200 0.08542794
0.12122810 0.08991400 0.08540004
0.13616610 0.08980400 0.08548898
0.11633801 0.09030300 0.08516198
0.11665905 0.09024500 0.08538204
0.12128901 0.09018500 0.08539504
0.13186800 0.09029900 0.08525795
0.13592505 0.09037700 0.08548599
0.13605106 0.09038200 0.08523697
0.11642408 0.09067700 0.08518201
0.11669207 0.09069000 0.08537704
0.12091899 0.09088700 0.08546704
0.12116504 0.09070300 0.08531398
0.13196206 0.09061401 0.08508199
0.13211501 0.09075500 0.08527905
0.13539302 0.09097300 0.08537596
0.13574910 0.09079000 0.08525997
0.13605106 0.09060300 0.08512694
0.11680508 0.09113900 0.08518201
0.11707807 0.09122900 0.08538395
0.12082100 0.09140200 0.08533496
0.12109208 0.09133800 0.08515996
0.13240504 0.09108400 0.08521205
0.13268101 0.09119800 0.08537000
0.13341808 0.09146800 0.08500201
0.13373899 0.09148300 0.08507293
0.13423610 0.09134100 0.08537000
0.13482702 0.09127300 0.08526593
0.13527405 0.09117100 0.08516902
0.11729705 0.09167900 0.08523196
0.11773705 0.09184200 0.08529896
0.11820006 0.09193100 0.08538204
0.11874008 0.09195600 0.08548194
0.11928403 0.09198200 0.08543605
0.11974299 0.09193500 0.08535296
0.12028301 0.09183000 0.08526498
0.12062204 0.09169000 0.08515698
0.13423204 0.09150501 0.08502501
0.11882710 0.09210000 0.08503097
0.11988604 0.09200900 0.08518595
0.12010705 0.09201900 0.08501703
0.13012803 0.01439700 0.08589596
0.13143206 0.02236301 0.08583301
0.13153207 0.02236700 0.08597904
0.13145006 0.02286100 0.08554095
0.13154399 0.02286600 0.08581203
0.13638306 0.02289800 0.08571500
0.13178110 0.02326700 0.08573502
0.13209009 0.02340500 0.08588904
0.13590002 0.02342701 0.08593494
0.13621902 0.02335000 0.08571202
0.10741401 0.02398300 0.08586401
0.11194003 0.02389500 0.08566099
0.13193905 0.02382700 0.08557695
0.13222301 0.02385500 0.08582300
0.13253605 0.02398300 0.08599299
0.13583004 0.02377400 0.08584100
0.13615203 0.02377100 0.08555800
0.10773408 0.02440301 0.08566099
0.11134100 0.02439100 0.08587199
0.11162603 0.02426800 0.08575004
0.13233507 0.02427301 0.08572894
0.13262808 0.02432801 0.08596498
0.13577807 0.02422200 0.08570498
0.13603508 0.02414501 0.08552104
0.10792303 0.02461301 0.08574003
0.10827804 0.02483100 0.08571404
0.10877204 0.02485400 0.08578902
0.10923207 0.02488700 0.08582097
0.10975301 0.02480900 0.08593303
0.11024010 0.02483100 0.08584398
0.11076105 0.02475700 0.08574599
0.11119902 0.02469900 0.08561105
0.11150706 0.02466901 0.08552200
0.13234103 0.02464001 0.08565193
0.13271308 0.02470700 0.08589798
0.13308704 0.02495700 0.08597094
0.13543105 0.02482200 0.08593899
0.13566005 0.02464500 0.08573705
0.10939801 0.02526300 0.08557695
0.10975504 0.02525501 0.08562297
0.11024201 0.02524701 0.08562201
0.11073208 0.02526700 0.08555597
0.11100900 0.02531400 0.08553904
0.13245904 0.02525701 0.08551103
0.13277102 0.02527200 0.08572203
0.13327706 0.02528301 0.08588403
0.13375700 0.02533101 0.08595794
0.13424802 0.02532800 0.08594602
0.13473606 0.02537601 0.08589894
0.13524508 0.02523600 0.08582896
0.13559306 0.02518000 0.08558899
0.10946202 0.02557100 0.08553797
0.10973799 0.02571701 0.08556002
0.11022508 0.02573900 0.08559102
0.11076307 0.02572401 0.08552605
0.11108804 0.02564600 0.08550900
0.13272703 0.02576600 0.08569700
0.13325810 0.02579200 0.08588701
0.13374102 0.02581400 0.08595794
0.13423109 0.02583700 0.08591503
0.13475204 0.02587301 0.08583802
0.13524306 0.02578500 0.08572704
0.13556004 0.02551500 0.08556503
0.11033905 0.02609201 0.08550400
0.11061001 0.02610500 0.08550805
0.13277102 0.02620700 0.08570594
0.13324702 0.02622901 0.08588797
0.13373411 0.02625100 0.08589405
0.13425207 0.02626200 0.08586603
0.13474405 0.02631201 0.08575100
0.13524008 0.02628501 0.08560294
0.13238907 0.02677101 0.08557600
0.13274908 0.02669801 0.08573204
0.13324702 0.02670701 0.08587795
0.13373208 0.02675700 0.08589405
0.13424206 0.02675100 0.08585304
0.13474703 0.02667901 0.08572894
0.13511109 0.02668200 0.08557898
0.13233507 0.02730401 0.08559197
0.13274002 0.02730700 0.08578104
0.13321805 0.02730401 0.08589894
0.13373506 0.02727000 0.08593005
0.13425410 0.02726600 0.08581501
0.13474309 0.02721500 0.08565301
0.13502705 0.02713500 0.08553904
0.13190401 0.02779800 0.08556396
0.13224506 0.02771500 0.08569294
0.13274908 0.02772701 0.08587104
0.13326108 0.02772300 0.08593005
0.13375604 0.02769700 0.08587998
0.13426709 0.02772000 0.08579797
0.13463008 0.02771001 0.08559901
0.13184702 0.02823600 0.08563703
0.13225210 0.02822100 0.08582896
0.13276207 0.02825901 0.08591205
0.13323903 0.02826500 0.08595401
0.13370299 0.02828600 0.08590704
0.13423109 0.02821800 0.08574694
0.13457203 0.02814201 0.08555001
0.13178599 0.02872901 0.08566099
0.13223600 0.02873801 0.08584100
0.13272107 0.02878600 0.08588296
0.13327301 0.02882800 0.08581704
0.13378203 0.02875300 0.08578104
0.13421106 0.02860801 0.08570701
0.13450408 0.02853300 0.08552998
0.13145304 0.02933200 0.08555096
0.13174701 0.02926300 0.08569998
0.13221407 0.02918001 0.08581299
0.13276803 0.02917300 0.08583802
0.13325906 0.02919601 0.08578902
0.13373208 0.02920900 0.08564895
0.13132501 0.02979600 0.08561605
0.13177204 0.02968301 0.08584195
0.13226902 0.02967100 0.08596498
0.13274610 0.02968401 0.08594495
0.13324010 0.02970600 0.08582896
0.13373101 0.02972001 0.08562094
0.13403404 0.02958900 0.08551496
0.11179399 0.03039001 0.08551198
0.11230206 0.03034601 0.08557004
0.11276901 0.03043701 0.08558100
0.13094401 0.03028300 0.08558494
0.13123500 0.03030801 0.08572000
0.13172805 0.03018500 0.08592397
0.13210499 0.03002700 0.08599597
0.13294506 0.03027301 0.08593005
0.13324106 0.03028700 0.08580703
0.13358808 0.03009500 0.08566397
0.11186004 0.03079900 0.08553404
0.11223805 0.03070301 0.08558005
0.11278009 0.03072900 0.08562595
0.11314201 0.03078900 0.08558494
0.13090301 0.03082500 0.08560699
0.13126600 0.03078900 0.08580405
0.13166809 0.03084700 0.08595294
0.13289404 0.03078701 0.08595902
0.13324106 0.03089000 0.08583397
0.13351810 0.03050400 0.08556896
0.11199105 0.03106600 0.08555001
0.11227310 0.03108200 0.08562595
0.11273611 0.03116301 0.08566397
0.11320102 0.03112501 0.08560699
0.11350811 0.03113601 0.08552104
0.13047099 0.03134100 0.08554703
0.13078701 0.03129800 0.08569998
0.13120103 0.03127301 0.08590502
0.13160610 0.03113200 0.08596295
0.13285601 0.03130001 0.08593303
0.13321805 0.03129800 0.08575898
0.11277807 0.03160900 0.08550805
0.11312306 0.03169399 0.08551198
0.13043702 0.03180300 0.08555704
0.13073707 0.03183500 0.08577996
0.13114703 0.03182401 0.08595294
0.13281608 0.03185101 0.08593899
0.13325810 0.03177001 0.08575600
0.13359499 0.03156801 0.08553404
0.11241603 0.03233300 0.08551294
0.11277509 0.03225800 0.08552200
0.11321199 0.03227301 0.08553797
0.11358905 0.03227600 0.08553797
0.13041699 0.03232600 0.08557504
0.13075709 0.03233100 0.08581394
0.13123810 0.03237601 0.08591396
0.13172507 0.03237601 0.08593398
0.13227606 0.03231201 0.08581203
0.13279700 0.03223500 0.08572394
0.13323104 0.03205401 0.08571094
0.13354409 0.03200001 0.08553404
0.11275411 0.03268600 0.08554095
0.11324203 0.03270900 0.08556598
0.11372900 0.03273199 0.08556300
0.11405408 0.03274700 0.08550197
0.13037002 0.03273199 0.08556694
0.13076401 0.03276201 0.08581597
0.13124406 0.03276300 0.08592600
0.13175905 0.03277700 0.08591801
0.13223803 0.03271700 0.08582395
0.13266909 0.03271601 0.08566099
0.11296511 0.03344700 0.08550495
0.11326802 0.03321901 0.08555704
0.11376202 0.03326100 0.08558804
0.11413801 0.03323400 0.08558899
0.13024104 0.03323101 0.08566505
0.13076711 0.03318700 0.08588296
0.13121104 0.03315300 0.08593899
0.13179505 0.03323400 0.08591002
0.13223505 0.03325400 0.08579594
0.13254905 0.03323901 0.08558398
0.11337101 0.03379500 0.08554798
0.11375904 0.03382900 0.08563393
0.11422801 0.03377500 0.08561796
0.11461401 0.03383300 0.08552200
0.13027799 0.03372200 0.08573204
0.13075304 0.03367800 0.08590502
0.13104904 0.03353800 0.08594102
0.13180602 0.03374900 0.08596295
0.13224709 0.03373000 0.08581704
0.13253105 0.03391400 0.08558100
0.11343300 0.03427200 0.08551198
0.11379504 0.03415400 0.08564204
0.11428010 0.03415701 0.08566195
0.11470306 0.03414801 0.08556694
0.12981308 0.03427100 0.08566600
0.13024902 0.03422000 0.08582002
0.13074911 0.03416300 0.08592695
0.13126004 0.03430000 0.08599395
0.13185906 0.03419301 0.08594400
0.13222003 0.03423201 0.08576900
0.11378002 0.03464700 0.08557504
0.11424410 0.03474800 0.08567196
0.11473310 0.03477100 0.08559102
0.11507702 0.03478101 0.08554703
0.12944710 0.03470100 0.08557397
0.12974405 0.03470200 0.08578104
0.13021910 0.03470901 0.08592194
0.13055909 0.03466500 0.08598000
0.13194001 0.03468500 0.08595604
0.13224602 0.03474300 0.08581394
0.13251901 0.03464401 0.08558100
0.11510408 0.03500600 0.08550805
0.12931299 0.03525001 0.08564001
0.12969899 0.03523000 0.08588797
0.13186109 0.03524300 0.08598500
0.13219500 0.03525800 0.08582097
0.12932003 0.03579400 0.08567494
0.12972200 0.03583100 0.08589405
0.13019407 0.03596200 0.08593303
0.13189805 0.03567600 0.08596295
0.13221300 0.03567500 0.08577698
0.11477506 0.03637700 0.08551997
0.11522901 0.03621601 0.08551997
0.12927210 0.03619000 0.08569795
0.12975109 0.03621300 0.08587295
0.13126910 0.03620800 0.08596605
0.13174403 0.03620300 0.08583003
0.13211906 0.03629100 0.08562905
0.11484003 0.03681201 0.08555001
0.11524510 0.03674200 0.08558601
0.11571503 0.03674901 0.08556896
0.11607003 0.03681700 0.08552998
0.12893701 0.03692000 0.08559102
0.12925410 0.03671600 0.08572501
0.12972903 0.03670600 0.08589298
0.13005900 0.03655100 0.08594602
0.13126004 0.03665400 0.08597904
0.13173604 0.03673400 0.08589095
0.13209903 0.03674001 0.08571798
0.11485910 0.03726000 0.08556694
0.11523604 0.03730500 0.08566803
0.11574507 0.03721701 0.08569402
0.11616707 0.03726101 0.08561605
0.12885606 0.03729801 0.08558601
0.12924004 0.03733501 0.08581203
0.12969601 0.03738201 0.08593696
0.13189304 0.03730600 0.08587605
0.13211906 0.03724600 0.08575898
0.11474299 0.03779700 0.08554298
0.11524200 0.03771600 0.08566803
0.11575806 0.03775300 0.08569103
0.11624408 0.03775001 0.08560902
0.11658299 0.03789000 0.08557302
0.12881207 0.03774300 0.08565897
0.12926507 0.03774901 0.08590704
0.12959099 0.03765500 0.08594698
0.13191700 0.03765801 0.08591002
0.13215804 0.03769000 0.08576602
0.11488104 0.03817400 0.08556694
0.11525905 0.03825700 0.08568305
0.11574602 0.03823300 0.08575696
0.11620700 0.03827800 0.08571297
0.11661410 0.03808600 0.08559197
0.12882304 0.03823601 0.08566803
0.12924302 0.03825700 0.08586699
0.12955511 0.03834601 0.08595198
0.13213909 0.03827900 0.08587700
0.11489201 0.03862400 0.08555704
0.11527002 0.03864200 0.08564204
0.11576605 0.03875901 0.08566397
0.11627603 0.03875001 0.08563501
0.11662102 0.03862600 0.08564597
0.12880504 0.03865300 0.08569902
0.12928307 0.03867500 0.08590704
0.13221908 0.03871401 0.08588797
0.11544502 0.03934900 0.08550304
0.11576200 0.03933701 0.08553904
0.11620808 0.03941500 0.08552903
0.12888002 0.03920700 0.08562499
0.12924504 0.03927401 0.08579105
0.12963307 0.03930800 0.08588094
0.13234901 0.03933701 0.08591598
0.13255501 0.03944400 0.08574504
0.11579299 0.03986600 0.08553094
0.11618400 0.03989901 0.08552605
0.11652207 0.03999101 0.08550602
0.12894404 0.03975600 0.08550698
0.12927210 0.03985800 0.08560401
0.12977803 0.03978001 0.08577996
0.13023210 0.03976300 0.08590001
0.13076401 0.03971300 0.08592504
0.13124299 0.03968300 0.08595401
0.13174701 0.03977901 0.08590299
0.13223708 0.03974900 0.08572096
0.11583507 0.04025000 0.08553702
0.11623704 0.04030500 0.08551294
0.12926805 0.04027800 0.08559197
0.12975705 0.04033500 0.08573800
0.13023007 0.04029900 0.08585697
0.13075709 0.04006301 0.08595699
0.13121402 0.04006900 0.08598500
0.13181603 0.04012701 0.08594197
0.13222909 0.04013100 0.08577901
0.11583400 0.04065201 0.08550805
0.11623800 0.04072501 0.08551794
0.12927008 0.04070601 0.08560401
0.12974608 0.04070300 0.08577102
0.13029408 0.04068500 0.08589596
0.13071799 0.04058100 0.08593804
0.13125408 0.04054201 0.08597702
0.13181210 0.04066600 0.08596402
0.13226306 0.04070300 0.08582896
0.13258207 0.04081300 0.08561999
0.11538708 0.04113600 0.08552796
0.11574304 0.04120900 0.08553201
0.11614299 0.04120000 0.08555096
0.12934899 0.04120301 0.08560604
0.12976503 0.04124901 0.08571404
0.13026202 0.04125701 0.08588904
0.13067400 0.04123800 0.08594996
0.13194108 0.04121000 0.08598703
0.13226902 0.04127000 0.08590204
0.13260710 0.04124001 0.08570904
0.11576807 0.04162100 0.08554798
0.11622906 0.04171300 0.08556801
0.11651707 0.04183100 0.08550197
0.12930107 0.04173800 0.08560199
0.12975705 0.04176900 0.08573204
0.13023603 0.04179201 0.08589596
0.13066709 0.04174100 0.08595496
0.13176310 0.04155700 0.08597904
0.13228607 0.04172501 0.08591205
0.13259900 0.04179901 0.08572501
0.11583710 0.04224300 0.08556503
0.11624801 0.04227701 0.08555597
0.11660504 0.04232201 0.08553201
0.12937510 0.04215801 0.08560199
0.12974608 0.04224300 0.08570296
0.13026202 0.04226701 0.08586997
0.13068199 0.04228701 0.08593899
0.13234007 0.04224201 0.08593804
0.13262200 0.04229300 0.08578104
0.11590099 0.04260701 0.08559102
0.11628103 0.04262500 0.08554703
0.11660600 0.04264000 0.08553296
0.12933207 0.04277800 0.08559400
0.12976611 0.04279400 0.08573395
0.13024509 0.04279301 0.08587903
0.13059402 0.04282100 0.08595699
0.13236201 0.04268201 0.08597904
0.13264108 0.04269400 0.08583194
0.12939906 0.04313800 0.08559901
0.12975800 0.04323800 0.08566695
0.13024199 0.04329900 0.08582097
0.13071907 0.04333800 0.08590204
0.13108301 0.04349901 0.08588701
0.13247001 0.04312600 0.08593494
0.13263810 0.04324101 0.08583003
0.12976706 0.04380900 0.08557397
0.13022304 0.04381700 0.08574194
0.13076103 0.04384200 0.08580703
0.13125908 0.04376800 0.08590204
0.13173103 0.04376800 0.08591098
0.13225305 0.04366800 0.08583003
0.13263500 0.04372600 0.08562702
0.12978899 0.04421300 0.08554298
0.13026607 0.04423600 0.08573598
0.13075006 0.04425800 0.08580703
0.13123608 0.04428101 0.08584696
0.13174701 0.04429300 0.08592898
0.13225007 0.04422300 0.08585304
0.13265705 0.04426700 0.08565694
0.12987506 0.04474200 0.08555001
0.13023305 0.04476200 0.08569402
0.13073909 0.04475400 0.08582097
0.13123906 0.04470500 0.08586293
0.13172305 0.04472800 0.08592302
0.13226807 0.04475300 0.08586603
0.13271511 0.04477300 0.08563894
0.12985110 0.04519200 0.08557194
0.13025308 0.04522601 0.08574504
0.13075006 0.04522701 0.08585995
0.13125610 0.04518901 0.08593804
0.13175905 0.04520001 0.08598000
0.13224900 0.04524700 0.08593005
0.13273108 0.04525700 0.08571202
0.11633503 0.04572900 0.08550698
0.11669409 0.04577200 0.08551604
0.12984407 0.04577200 0.08560199
0.13023901 0.04576100 0.08570999
0.13074601 0.04575200 0.08585399
0.13127804 0.04571600 0.08594400
0.13172901 0.04564700 0.08598596
0.13227808 0.04575001 0.08594900
0.13274705 0.04575901 0.08578497
0.11579299 0.04613000 0.08551794
0.11625099 0.04616201 0.08558005
0.11669207 0.04618600 0.08555204
0.12989509 0.04620801 0.08560604
0.13025808 0.04623100 0.08574301
0.13075709 0.04623900 0.08587402
0.13112402 0.04620901 0.08597404
0.13231301 0.04618300 0.08595198
0.13271809 0.04624701 0.08583695
0.13308001 0.04645900 0.08566302
0.12946606 0.04685800 0.08551496
0.12977409 0.04678001 0.08564204
0.13025403 0.04680300 0.08580905
0.13073409 0.04682600 0.08593994
0.13105702 0.04684100 0.08598596
0.13245809 0.04667901 0.08596700
0.13273406 0.04669100 0.08587700
0.13305306 0.04666001 0.08570594
0.12980509 0.04711001 0.08556503
0.13028002 0.04725100 0.08567101
0.13075900 0.04727401 0.08580798
0.13124204 0.04729600 0.08590096
0.13175809 0.04733400 0.08591694
0.13224208 0.04733001 0.08590204
0.13272810 0.04724701 0.08575994
0.13301599 0.04714100 0.08568603
0.12981606 0.04782501 0.08552498
0.13025200 0.04776101 0.08566803
0.13075101 0.04780000 0.08579499
0.13121605 0.04773501 0.08587700
0.13177001 0.04773301 0.08589500
0.13226199 0.04775600 0.08580297
0.13273501 0.04776700 0.08564299
0.11630404 0.04836801 0.08551902
0.11658204 0.04815800 0.08551198
0.12982309 0.04832301 0.08553201
0.13025200 0.04828200 0.08567804
0.13075805 0.04829401 0.08584803
0.13125610 0.04825701 0.08589798
0.13172901 0.04822800 0.08591300
0.13225400 0.04826801 0.08587497
0.13273609 0.04824801 0.08570403
0.12978208 0.04876700 0.08556098
0.13026202 0.04867600 0.08570200
0.13076806 0.04868700 0.08586794
0.13125110 0.04873501 0.08593994
0.13173902 0.04873200 0.08595496
0.13222504 0.04878101 0.08594996
0.13278210 0.04872601 0.08574301
0.13306403 0.04868801 0.08557504
0.11634600 0.04940200 0.08554894
0.11667407 0.04923800 0.08552998
0.11704600 0.04922800 0.08551496
0.12983608 0.04917000 0.08557898
0.13025606 0.04918601 0.08574194
0.13076305 0.04921600 0.08590597
0.13126004 0.04923001 0.08597094
0.13174307 0.04922700 0.08598799
0.13227999 0.04916701 0.08597404
0.13275301 0.04921500 0.08581501
0.13309109 0.04926400 0.08558601
0.11640501 0.04981500 0.08555704
0.11667502 0.04982801 0.08557099
0.12980604 0.04972400 0.08559805
0.13025606 0.04975601 0.08580095
0.13070309 0.04972400 0.08595103
0.13121700 0.04969300 0.08599097
0.13189709 0.04950400 0.08599597
0.13239205 0.04970200 0.08594805
0.13275707 0.04977100 0.08579701
0.13309610 0.04966900 0.08562094
0.11589801 0.05029200 0.08552998
0.11625409 0.05034600 0.08558100
0.11673903 0.05024000 0.08561105
0.11710501 0.05027400 0.08556098
0.12978101 0.05026200 0.08559400
0.13024008 0.05025400 0.08576399
0.13074601 0.05030100 0.08593398
0.13111901 0.05009100 0.08599204
0.13231301 0.05014600 0.08595401
0.13275909 0.05016600 0.08574694
0.13309503 0.05018100 0.08554798
0.11633003 0.05065700 0.08553499
0.11670899 0.05067500 0.08554894
0.11732602 0.05050701 0.08553499
0.12985408 0.05077700 0.08557004
0.13025999 0.05077501 0.08575505
0.13073707 0.05079700 0.08594900
0.13193810 0.05054000 0.08595496
0.13227999 0.05067900 0.08594602
0.13272810 0.05074500 0.08580405
0.13312101 0.05072901 0.08557004
0.12983704 0.05118600 0.08557004
0.13025105 0.05124800 0.08571500
0.13069606 0.05125201 0.08591896
0.13126504 0.05135201 0.08598298
0.13175201 0.05137400 0.08599705
0.13228106 0.05131100 0.08589703
0.13278008 0.05123600 0.08574301
0.13308001 0.05117600 0.08559197
0.11684310 0.05176701 0.08550197
0.12999403 0.05191600 0.08553404
0.13031209 0.05178501 0.08562797
0.13074601 0.05174901 0.08577996
0.13124704 0.05175601 0.08587700
0.13173211 0.05173801 0.08588403
0.13224101 0.05167900 0.08572894
0.13265705 0.05171001 0.08559102
0.11642206 0.05230500 0.08550805
0.11670411 0.05238301 0.08552998
0.12999308 0.05213700 0.08551198
0.13027000 0.05228400 0.08560795
0.13074601 0.05228001 0.08579403
0.13125610 0.05231801 0.08590800
0.13179004 0.05229101 0.08589298
0.13226306 0.05223300 0.08575100
0.13265800 0.05219100 0.08559698
0.11645401 0.05289701 0.08552498
0.11679304 0.05275801 0.08555299
0.13028002 0.05275300 0.08557600
0.13074005 0.05281401 0.08575994
0.13123310 0.05280000 0.08589000
0.13177609 0.05275699 0.08588403
0.13226700 0.05279700 0.08578998
0.13266110 0.05270500 0.08558303
0.11635399 0.05348000 0.08550805
0.11672401 0.05327600 0.08559304
0.13027501 0.05313700 0.08560604
0.13075900 0.05318901 0.08580297
0.13127410 0.05319200 0.08595997
0.13175499 0.05317600 0.08595604
0.13225007 0.05320500 0.08580798
0.13271308 0.05323400 0.08558005
0.11629009 0.05373600 0.08551604
0.11678100 0.05371600 0.08563393
0.11723602 0.05371401 0.08558196
0.13026810 0.05361900 0.08558494
0.13074708 0.05362600 0.08576101
0.13125300 0.05365801 0.08592099
0.13176405 0.05369000 0.08597094
0.13225901 0.05369601 0.08585697
0.13276100 0.05373500 0.08560497
0.11592507 0.05426700 0.08553797
0.11624503 0.05415401 0.08556300
0.11675906 0.05419101 0.08566397
0.11727500 0.05422801 0.08560604
0.11766005 0.05434600 0.08551902
0.13029003 0.05430700 0.08564001
0.13076603 0.05425000 0.08581001
0.13111305 0.05425601 0.08589000
0.13190401 0.05424900 0.08596605
0.13224900 0.05430900 0.08590895
0.13272405 0.05434100 0.08567399
0.13306010 0.05443600 0.08558899
0.11591101 0.05459100 0.08553594
0.11629605 0.05467100 0.08556694
0.11675310 0.05471700 0.08567101
0.11723804 0.05466300 0.08569497
0.11764610 0.05467200 0.08552605
0.12996709 0.05491801 0.08554095
0.13028204 0.05483100 0.08566099
0.13075304 0.05473000 0.08580595
0.13109100 0.05474600 0.08590502
0.13195610 0.05467400 0.08598202
0.13225603 0.05470000 0.08594805
0.13275599 0.05469900 0.08570200
0.13306606 0.05472501 0.08552104
0.11640203 0.05533700 0.08551699
0.11676300 0.05522901 0.08552498
0.11710608 0.05536900 0.08554894
0.12995410 0.05524400 0.08553797
0.13024604 0.05526701 0.08567494
0.13075209 0.05528100 0.08582598
0.13115108 0.05528401 0.08593696
0.13235605 0.05512801 0.08593100
0.13272905 0.05527900 0.08577794
0.13302708 0.05527800 0.08560902
0.11637402 0.05571000 0.08555502
0.11675906 0.05575000 0.08558005
0.11723506 0.05578500 0.08554703
0.11754405 0.05586401 0.08551794
0.13031304 0.05580200 0.08551604
0.13070309 0.05573401 0.08564001
0.13123310 0.05569100 0.08582598
0.13174605 0.05570500 0.08587497
0.13223600 0.05574700 0.08577996
0.13265300 0.05575600 0.08562404
0.11638403 0.05622900 0.08556503
0.11676204 0.05622101 0.08558303
0.11725008 0.05626200 0.08558196
0.11759508 0.05629601 0.08552796
0.13034105 0.05630501 0.08555204
0.13077009 0.05623901 0.08569199
0.13124108 0.05625600 0.08586103
0.13174200 0.05626300 0.08591694
0.13225400 0.05627500 0.08582896
0.13268101 0.05630700 0.08561105
0.11624706 0.05673800 0.08558005
0.11673105 0.05678800 0.08564502
0.11722910 0.05672500 0.08563703
0.11762702 0.05671500 0.08556598
0.13039505 0.05679901 0.08555299
0.13073409 0.05675700 0.08564502
0.13124800 0.05679500 0.08584696
0.13174403 0.05672300 0.08592302
0.13223410 0.05674501 0.08587497
0.13274801 0.05673800 0.08567101
0.11627305 0.05728000 0.08559102
0.11676109 0.05727901 0.08568496
0.11727202 0.05722800 0.08571202
0.11772609 0.05728900 0.08559901
0.13036203 0.05730700 0.08558196
0.13076401 0.05731700 0.08570904
0.13124001 0.05735800 0.08586103
0.13175201 0.05725200 0.08595198
0.13224101 0.05727500 0.08593494
0.13271201 0.05724500 0.08570200
0.13306308 0.05734900 0.08550900
0.11587107 0.05793600 0.08550805
0.11625600 0.05777600 0.08563095
0.11674106 0.05779900 0.08576697
0.11720407 0.05779301 0.08580595
0.11777604 0.05775800 0.08564895
0.13039899 0.05766501 0.08559495
0.13075399 0.05774501 0.08570904
0.13126099 0.05775800 0.08587605
0.13177001 0.05777000 0.08598095
0.13225806 0.05781600 0.08593196
0.13278699 0.05773801 0.08568794
0.13309109 0.05778600 0.08554798
0.11588800 0.05831800 0.08554500
0.11625099 0.05828400 0.08567303
0.11673701 0.05832601 0.08582002
0.11727309 0.05828500 0.08584195
0.11776602 0.05823700 0.08572704
0.11812806 0.05834600 0.08557695
0.13040602 0.05824101 0.08558995
0.13078010 0.05825900 0.08570498
0.13125801 0.05828100 0.08587497
0.13174200 0.05820800 0.08598298
0.13223207 0.05823100 0.08593696
0.13272703 0.05825400 0.08580595
0.13315308 0.05825101 0.08556801
0.11583006 0.05861101 0.08555502
0.11626506 0.05870800 0.08567101
0.11675310 0.05874200 0.08579499
0.11723709 0.05871600 0.08583695
0.11775601 0.05870000 0.08575398
0.11813009 0.05871500 0.08559197
0.13036501 0.05871300 0.08557099
0.13076806 0.05875801 0.08574194
0.13117301 0.05875100 0.08587402
0.13235903 0.05870900 0.08597797
0.13277006 0.05874801 0.08582896
0.13316107 0.05875900 0.08562595
0.11630309 0.05922700 0.08557802
0.11673999 0.05926900 0.08568794
0.11727703 0.05925500 0.08572394
0.11773109 0.05922501 0.08562702
0.13038301 0.05927300 0.08557397
0.13075006 0.05924301 0.08570796
0.13121903 0.05927800 0.08589000
0.13174403 0.05944300 0.08598703
0.13228607 0.05941901 0.08594698
0.13277102 0.05934601 0.08586496
0.13322103 0.05928600 0.08564502
0.11589611 0.05981500 0.08554298
0.11624908 0.05984101 0.08561999
0.11673200 0.05984400 0.08574802
0.11724806 0.05987801 0.08576995
0.11773610 0.05990000 0.08572894
0.11807609 0.05982600 0.08559102
0.13043106 0.05981500 0.08550900
0.13075399 0.05971700 0.08560103
0.13123107 0.05976300 0.08578497
0.13174105 0.05977601 0.08588201
0.13225901 0.05978800 0.08583099
0.13275301 0.05983301 0.08569795
0.13311207 0.05965000 0.08553201
0.11593807 0.06021100 0.08554202
0.11623406 0.06023701 0.08559400
0.11674809 0.06024800 0.08574802
0.11726308 0.06026001 0.08579403
0.11777306 0.06027700 0.08573300
0.11810505 0.06025000 0.08556300
0.13043201 0.06039800 0.08556694
0.13078701 0.06028800 0.08562499
0.13122809 0.06024500 0.08579594
0.13174701 0.06022200 0.08592600
0.13225007 0.06029300 0.08591503
0.13270903 0.06018600 0.08573097
0.11592102 0.06067700 0.08555895
0.11624610 0.06069200 0.08559805
0.11676109 0.06073100 0.08576101
0.11724210 0.06072500 0.08585995
0.11776006 0.06076400 0.08579904
0.11821306 0.06082800 0.08559805
0.13043702 0.06064400 0.08555502
0.13077307 0.06068000 0.08565301
0.13125002 0.06072401 0.08581799
0.13175905 0.06073800 0.08594304
0.13224602 0.06076000 0.08593899
0.13276100 0.06070500 0.08577901
0.13316107 0.06074100 0.08558601
0.11591506 0.06117200 0.08560497
0.11623299 0.06122901 0.08564597
0.11674702 0.06124301 0.08582205
0.11726105 0.06125600 0.08590895
0.11774707 0.06130000 0.08582002
0.11821210 0.06131100 0.08563894
0.13044500 0.06148300 0.08551198
0.13073409 0.06121000 0.08562404
0.13126409 0.06113600 0.08580095
0.13174105 0.06118400 0.08592600
0.13225710 0.06120800 0.08595294
0.13274801 0.06121800 0.08586401
0.13319600 0.06123801 0.08561105
0.11590910 0.06174200 0.08553797
0.11625409 0.06171900 0.08563894
0.11675501 0.06172800 0.08579999
0.11726010 0.06178001 0.08586901
0.11774909 0.06177300 0.08582598
0.11824405 0.06172200 0.08566898
0.11854506 0.06172501 0.08552903
0.13041103 0.06187800 0.08553702
0.13076007 0.06182800 0.08568102
0.13124299 0.06168801 0.08586699
0.13172007 0.06154300 0.08597702
0.13222599 0.06156700 0.08597499
0.13275909 0.06175800 0.08589000
0.13326108 0.06174801 0.08563703
0.11587310 0.06217900 0.08562094
0.11624205 0.06225100 0.08568102
0.11675608 0.06226400 0.08584005
0.11725605 0.06228101 0.08590096
0.11772406 0.06226400 0.08590800
0.11824310 0.06219600 0.08569199
0.11860406 0.06230401 0.08552402
