# .PCD v0.7 - Point Cloud Data file format
VERSION 0.7
FIELDS x y z
SIZE 4 4 4
TYPE F F F
COUNT 1 1 1
WIDTH 1438
HEIGHT 1
VIEWPOINT 0 0 0 1 0 0 0
POINTS 1438
DATA ascii
1.6652433 -0.19767722 0.99753922
1.6657608 -0.19764604 0.997554
1.6662407 -0.19763936 0.99754393
1.6667471 -0.1976586 0.99754792
1.6672561 -0.1976361 0.99755943
1.6677583 -0.19762662 0.99756867
1.6507462 -0.19732681 0.99768281
1.6512569 -0.19730595 0.99765593
1.6517384 -0.19728352 0.99766791
1.6522357 -0.19725947 0.99764746
1.6527417 -0.1972601 0.9976396
1.6532612 -0.19724403 0.99767518
1.6537678 -0.19724175 0.99776673
1.6542434 -0.19722956 0.9977777
1.654745 -0.19720368 0.99777627
1.6552525 -0.19719993 0.99772668
1.6557568 -0.1971731 0.99771762
1.6562612 -0.19717252 0.99772733
1.6567458 -0.19717005 0.99775058
1.6572443 -0.19715202 0.99776185
1.6577423 -0.19715735 0.99773777
1.6582167 -0.19721372 0.99771827
1.658749 -0.19726583 0.99768955
1.6592414 -0.19726782 0.99766815
1.6597456 -0.19726339 0.99765438
1.6602556 -0.19727395 0.9976604
1.6607562 -0.19728638 0.99764156
1.6612468 -0.19725187 0.99767226
1.6617583 -0.19727315 0.99766141
1.6622566 -0.19726287 0.9976725
1.6627529 -0.19727401 0.99766219
1.6632479 -0.19728436 0.99765885
1.6637568 -0.19726664 0.99769008
1.6642438 -0.19724958 0.99769193
1.6647503 -0.19727644 0.9976809
1.6652516 -0.19726172 0.99767035
1.6657485 -0.1972468 0.99768651
1.6662606 -0.19724751 0.99769539
1.6523254 -0.19670829 0.99754637
1.6527632 -0.19671284 0.9975515
1.6532444 -0.19669494 0.99757284
1.653724 -0.1967158 0.99763656
1.654246 -0.19671571 0.99765068
1.6547801 -0.19673558 0.99765086
1.6552719 -0.19674152 0.99767417
1.655731 -0.1967804 0.99772513
1.656253 -0.19680801 0.99775392
1.6567483 -0.19679819 0.99778223
1.6572737 -0.19682887 0.99781466
1.6577897 -0.19687742 0.99776638
1.6582973 -0.19695619 0.99783313
1.658762 -0.19694147 0.99786758
1.6592442 -0.19692652 0.99787897
1.6597474 -0.19690549 0.99787897
1.6602601 -0.19688305 0.99789023
1.6607596 -0.19686466 0.99791175
1.6612664 -0.19683817 0.99791449
1.6617384 -0.19682531 0.99792475
1.6622404 -0.19680332 0.99788845
1.6627439 -0.19680387 0.99788654
1.6632595 -0.19682461 0.99786705
1.6637498 -0.19681722 0.99788117
1.6642506 -0.19680268 0.99789709
1.6647511 -0.19681628 0.99789268
1.6517737 -0.19633101 0.99758703
1.6522059 -0.19624184 0.99756283
1.6527408 -0.19628367 0.99757272
1.6532539 -0.1962411 0.9975422
1.6537859 -0.19628337 0.99755907
1.6542413 -0.19629602 0.99757719
1.6547353 -0.19627336 0.99759316
1.6552466 -0.19624884 0.99760455
1.6557655 -0.19627319 0.99763066
1.6562637 -0.19627683 0.99762851
1.6567347 -0.19628271 0.99765211
1.6572481 -0.19631642 0.99766016
1.6577584 -0.19626985 0.99768424
1.6582613 -0.19631463 0.99769247
1.6587586 -0.19628473 0.99770451
1.6592565 -0.19628012 0.9977203
1.6597407 -0.19624595 0.99773747
1.6602384 -0.19621608 0.99774128
1.6607484 -0.19627199 0.997769
1.6612593 -0.19624722 0.99778616
1.6617529 -0.19623269 0.997805
1.6622459 -0.19619453 0.99780935
1.6627383 -0.19617854 0.99783593
1.6632627 -0.19619802 0.99783224
1.6637567 -0.19622655 0.99785602
1.6642553 -0.19619513 0.99788719
1.6647376 -0.19622883 0.99793965
1.6652184 -0.19613561 0.99789047
1.6517441 -0.19573772 0.99758631
1.6522574 -0.19574222 0.99761689
1.6527697 -0.19568999 0.99764049
1.6532266 -0.19577926 0.9976415
1.6537379 -0.19575571 0.99759942
1.6542509 -0.19573176 0.99763519
1.6547635 -0.19570792 0.99765486
1.6552758 -0.19568424 0.99766713
1.6557314 -0.19566287 0.99770004
1.6562439 -0.19563901 0.99771166
1.6567749 -0.1956917 0.99774122
1.6572292 -0.19577765 0.99771732
1.6577666 -0.19580813 0.99774784
1.6582525 -0.1958019 0.99774754
1.6587598 -0.19574566 0.99774253
1.6592458 -0.19573949 0.99776113
1.659758 -0.19571559 0.99777681
1.66027 -0.19569188 0.99779224
1.6607366 -0.19577615 0.99779737
1.6612213 -0.19581702 0.9978072
1.6617627 -0.19585513 0.99783105
1.6622472 -0.19582301 0.9978447
1.6627572 -0.19581844 0.99786007
1.6632417 -0.19578636 0.99784464
1.6637262 -0.19575435 0.9978568
1.6642358 -0.19574979 0.99790847
1.6647675 -0.19579323 0.99791932
1.6652609 -0.19578356 0.997881
1.6522614 -0.19533393 0.99759215
1.6527556 -0.19531608 0.99762487
1.6532418 -0.19534416 0.99765664
1.6537409 -0.19531012 0.99767232
1.654253 -0.19530539 0.99766964
1.6547518 -0.19527444 0.99769962
1.6552354 -0.19523817 0.99773586
1.6557331 -0.19523656 0.99771869
1.6562214 -0.1952336 0.99772966
1.6567546 -0.19525 0.99770701
1.6572752 -0.19525756 0.9977293
1.6577383 -0.19528259 0.99776036
1.6582367 -0.19524175 0.99775261
1.6587489 -0.19522919 0.99779129
1.6592607 -0.19519398 0.99780589
1.6597593 -0.1951704 0.99780995
1.660242 -0.19516626 0.99782628
1.6607404 -0.19512521 0.99784535
1.66124 -0.19522199 0.99786049
1.6617619 -0.1952721 0.99789083
1.6622561 -0.19527838 0.99788529
1.6627473 -0.19524132 0.99790865
1.6632406 -0.19520338 0.99792469
1.6637344 -0.19524318 0.99792475
1.6642659 -0.19526637 0.99794608
1.6647521 -0.1952541 0.99791801
1.6652157 -0.19523558 0.99793005
1.6512331 -0.19475643 0.99773055
1.6517792 -0.1948159 0.99770343
1.6522628 -0.1947917 0.9977262
1.6527581 -0.19479869 0.99775082
1.6532599 -0.19490901 0.99772084
1.6537464 -0.1948835 0.99773717
1.6542586 -0.19485979 0.99775517
1.6547713 -0.19483575 0.99777597
1.6552265 -0.19481449 0.99778152
1.6557378 -0.19479108 0.99773914
1.6562828 -0.19482908 0.99777973
1.6567461 -0.19481346 0.99780411
1.6572378 -0.1947947 0.99781561
1.6577324 -0.19478747 0.99784642
1.658244 -0.19474067 0.99786597
1.6587564 -0.19473979 0.9978767
1.6592504 -0.19469701 0.99791819
1.6597416 -0.19467817 0.9978748
1.6602354 -0.19467129 0.99786997
1.6607473 -0.19462444 0.9978916
1.6612865 -0.19472601 0.99789321
1.6617569 -0.19481683 0.99790204
1.6622537 -0.19477873 0.99791622
1.662752 -0.19483931 0.99791354
1.6632459 -0.19483393 0.9979291
1.6637709 -0.19482404 0.99793655
1.6642677 -0.19483979 0.99795914
1.6647508 -0.19480774 0.99797356
1.6517611 -0.194281 0.99768013
1.6522362 -0.19428959 0.99768829
1.6527429 -0.19433337 0.99770826
1.6532329 -0.19433779 0.99773264
1.6537453 -0.1943375 0.99771589
1.6542579 -0.19429012 0.99775606
1.6547568 -0.19428855 0.9977842
1.6552535 -0.19425875 0.99774987
1.6557378 -0.19422151 0.9977861
1.6562214 -0.19424763 0.99782032
1.6567433 -0.19425479 0.99779052
1.6572582 -0.19423467 0.99783295
1.6577679 -0.19420709 0.99781883
1.6582431 -0.19418709 0.99782312
1.6587379 -0.19416569 0.99790055
1.659248 -0.19413808 0.99793762
1.6597621 -0.19411822 0.99794316
1.6602718 -0.19409068 0.99789989
1.6607471 -0.19407061 0.99791718
1.6612118 -0.19405834 0.99792928
1.6617258 -0.19425535 0.99793452
1.662273 -0.19424346 0.99796635
1.6627531 -0.19432533 0.99797857
1.6631401 -0.19429313 0.99799114
1.6527482 -0.1937553 0.99759823
1.6532305 -0.19373699 0.99765623
1.6537172 -0.19380113 0.9976722
1.6542286 -0.19377749 0.99764901
1.6547399 -0.19375399 0.99760514
1.6552521 -0.1937301 0.99762005
1.6557637 -0.19370639 0.99759543
1.6562487 -0.19374712 0.997715
1.6567413 -0.19376647 0.9977327
1.6572382 -0.19376509 0.99772066
1.6577424 -0.19382934 0.9977597
1.6582514 -0.193826 0.9977774
1.6587371 -0.193793 0.99785334
1.6592492 -0.19376932 0.99788058
1.6597614 -0.19374549 0.99788976
1.6602464 -0.19371289 0.99783039
1.660755 -0.19370955 0.99786305
1.6612755 -0.19374092 0.99787998
1.6617708 -0.19379024 0.99791235
1.6622326 -0.19380859 0.99793172
1.6627672 -0.1937898 0.99793226
1.663103 -0.19393399 0.99799901
1.6637676 -0.193896 0.99793148
1.65227 -0.19310161 0.99757546
1.652783 -0.19307774 0.9976005
1.653304 -0.19320284 0.99768037
1.6537606 -0.19323143 0.99763
1.6542457 -0.19323376 0.9976421
1.6547402 -0.193435 0.99765724
1.6552527 -0.19341126 0.9976778
1.6557649 -0.19338739 0.99769223
1.6562769 -0.19336374 0.9977088
1.6567328 -0.19334225 0.99772954
1.6572733 -0.19334833 0.99771756
1.6577574 -0.193398 0.99769276
1.6582693 -0.19335368 0.99769539
1.6587534 -0.19334124 0.9977501
1.6592375 -0.19332899 0.99779344
1.6597492 -0.19328478 0.99781907
1.6602612 -0.19328156 0.99780017
1.6607729 -0.19323725 0.99777836
1.6612566 -0.193225 0.997796
1.6617401 -0.193213 0.99780589
1.6622521 -0.19316868 0.99783689
1.6627642 -0.19316523 0.99785179
1.6632562 -0.19325201 0.99786162
1.6637299 -0.19321357 0.99787974
1.6642264 -0.1932842 0.99788928
1.6647534 -0.19328862 0.99790096
1.6652651 -0.19326489 0.99791765
1.6522803 -0.19284686 0.99762309
1.6527351 -0.19282576 0.99761218
1.6532484 -0.19280189 0.9976477
1.653761 -0.19277789 0.9976809
1.6542479 -0.19276555 0.99770343
1.6547431 -0.19280341 0.99767858
1.6552374 -0.19280702 0.99769616
1.65575 -0.19275814 0.99769658
1.6562616 -0.19275948 0.99771166
1.6567363 -0.19272441 0.99772596
1.6572306 -0.19268914 0.99777079
1.6577196 -0.19272637 0.99776065
1.6582515 -0.19273388 0.99778163
1.6587629 -0.19272788 0.99781591
1.659247 -0.19269636 0.99783427
1.6597306 -0.1926651 0.99778599
1.660242 -0.19265933 0.99779403
1.6607548 -0.19261757 0.99781209
1.6612661 -0.19261166 0.99782872
1.6617206 -0.19260851 0.99784267
1.6622303 -0.19263825 0.99786103
1.6627423 -0.19261441 0.99790806
1.663254 -0.19259074 0.99788922
1.6637658 -0.19256699 0.99790925
1.6642865 -0.19273502 0.99792743
1.6647443 -0.19277079 0.99793774
1.6652014 -0.19279933 0.99795359
1.6517389 -0.19230421 0.99764645
1.6522535 -0.192257 0.99764824
1.6527635 -0.19225688 0.99765569
1.6532489 -0.19222224 0.99767429
1.6537352 -0.19218799 0.99773628
1.6542457 -0.19218755 0.99778062
1.6547595 -0.19214021 0.9977572
1.6552691 -0.19214 0.99774384
1.6557221 -0.19214252 0.99775451
1.656227 -0.19218925 0.99776423
1.6567396 -0.19216542 0.99778414
1.6572512 -0.19214199 0.99774098
1.657792 -0.19222516 0.99781442
1.6582674 -0.19230588 0.99782455
1.6587515 -0.19226237 0.99782038
1.6592361 -0.19221857 0.99783254
1.6597464 -0.19223711 0.99782437
1.6602093 -0.19222173 0.99783111
1.6607631 -0.19235921 0.99785006
1.6612753 -0.19233525 0.99786997
1.6617664 -0.19237468 0.99786031
1.6622397 -0.1923838 0.99784958
1.6627513 -0.19235988 0.99788809
1.6632632 -0.19233601 0.99790412
1.6637751 -0.19231237 0.9979319
1.66423 -0.19229113 0.99794817
1.6647415 -0.19226721 0.997962
1.6517609 -0.19172166 0.99771351
1.6522346 -0.19168693 0.99768817
1.6527333 -0.19170231 0.997706
1.6532577 -0.19173576 0.99771881
1.6537457 -0.19172433 0.99777073
1.6542522 -0.19167812 0.99779034
1.6547384 -0.19166701 0.99777281
1.6552509 -0.191643 0.99778861
1.6557808 -0.19169448 0.99780065
1.6562157 -0.1918187 0.99780434
1.6567427 -0.19179888 0.99780953
1.6572584 -0.19180599 0.99780887
1.6577673 -0.19175133 0.99786359
1.658253 -0.19174412 0.99788022
1.6587381 -0.19173723 0.99786538
1.6592468 -0.19168255 0.9979071
1.6597316 -0.19167562 0.99785012
1.6602762 -0.19170859 0.99788225
1.6607615 -0.19187251 0.99792314
1.6612464 -0.1918381 0.99791664
1.6617558 -0.191838 0.99792427
1.6622086 -0.1918405 0.9979111
1.6627702 -0.19188459 0.99791861
1.6632643 -0.19175601 0.99794972
1.663749 -0.19172168 0.99797219
1.6642222 -0.19175658 0.99798018
1.6647607 -0.19179174 0.99797153
1.665045 -0.191779 0.997998
1.6522449 -0.19119044 0.9976812
1.6527706 -0.19122532 0.99772424
1.6532484 -0.19128369 0.99772429
1.6537423 -0.19124523 0.99774396
1.6542525 -0.19133765 0.99776912
1.6547372 -0.19132645 0.99778885
1.6552482 -0.19128022 0.99780589
1.655762 -0.19127855 0.99782425
1.6562742 -0.19129786 0.9978255
1.6567482 -0.19131771 0.99786341
1.6572428 -0.19128333 0.99784768
1.6577545 -0.19125687 0.99787647
1.658267 -0.19123565 0.99786466
1.6587595 -0.19121143 0.99787009
1.6592257 -0.19123825 0.99793434
1.6597497 -0.1912491 0.9978978
1.6602618 -0.19124189 0.99790043
1.6607531 -0.19130342 0.99791998
1.6612265 -0.1913147 0.99792546
1.6617149 -0.19128799 0.99794358
1.6622822 -0.19137681 0.99795264
1.662762 -0.1912732 0.99797648
1.6632711 -0.19137126 0.99798852
1.664238 -0.19132701 0.99793702
1.6522312 -0.19074962 0.9976474
1.6527436 -0.19072561 0.99765217
1.6532561 -0.1907018 0.99767876
1.6537908 -0.19071357 0.99769866
1.6542346 -0.19076602 0.99774075
1.6547472 -0.19074205 0.99778724
1.6552435 -0.19079301 0.99777764
1.655749 -0.19079454 0.99778068
1.6562591 -0.19079466 0.99784976
1.6567442 -0.19076 0.99786174
1.6572561 -0.19073641 0.99785769
1.6577682 -0.19071224 0.99790192
1.6582533 -0.19067766 0.99792695
1.658676 -0.19077867 0.99796766
1.6593975 -0.1909975 0.99796498
1.6597388 -0.19098175 0.99797821
1.660194 -0.19096026 0.99799275
1.6502309 -0.19026117 0.99794769
1.6508067 -0.19034849 0.99788803
1.6512173 -0.19038329 0.99786335
1.651695 -0.19037326 0.99785972
1.6522541 -0.19043225 0.997877
1.6527671 -0.19040841 0.99792141
1.6532791 -0.19038425 0.99794531
1.6536773 -0.19036567 0.99796307
1.6553085 -0.19049299 0.99790335
1.6557068 -0.19047475 0.99792206
1.657129 -0.19040801 0.99798298
1.665733 -0.081606999 0.99788499
1.6619135 -0.1967625 0.99802697
1.6622559 -0.19680092 0.99801266
1.6627655 -0.19676445 0.99802703
1.6632606 -0.19675051 0.99804294
1.6637707 -0.19672129 0.99805605
1.663388 -0.194361 0.99800652
1.6637249 -0.19433589 0.99801582
1.6642464 -0.19439232 0.99803513
1.6624017 -0.19379866 0.99802107
1.6627337 -0.19369924 0.99801797
1.6632638 -0.19381635 0.99802035
1.6637676 -0.19384736 0.99802613
1.6642578 -0.1938283 0.99805313
1.662336 -0.1916935 0.99801004
1.6627344 -0.19167481 0.9980225
1.664384 -0.1915985 0.99800396
1.6647251 -0.19158225 0.9980163
1.658772 -0.191026 0.99801397
1.6612301 -0.19111368 0.99801636
1.6618836 -0.191158 0.99803102
1.6622317 -0.19112289 0.99805301
1.6627628 -0.19119278 0.99808341
1.6632478 -0.19109437 0.99808437
1.6636947 -0.19119969 0.99805659
1.6642401 -0.19121344 0.99803287
1.6588068 -0.19062737 0.99804962
1.6592482 -0.19064298 0.99809831
1.6597035 -0.19062175 0.99814564
1.6602726 -0.19074599 0.9981153
1.660753 -0.190808 0.99809116
1.6612386 -0.19077121 0.99818486
1.661746 -0.19077547 0.99822259
1.6622312 -0.19073889 0.99826908
1.64926 -0.19011475 0.99808902
1.6496584 -0.19009601 0.9981057
1.6503386 -0.19006467 0.99805272
1.650738 -0.19004598 0.99810976
1.6511525 -0.19014099 0.99810553
1.651906 -0.19022101 0.99804598
1.6521345 -0.19021049 0.99807549
1.6528764 -0.19017568 0.99820507
1.6539069 -0.190355 0.99804801
1.6542482 -0.19033901 0.9980672
1.6547598 -0.19031499 0.99808502
1.6552155 -0.190294 0.99814326
1.6557722 -0.19030151 0.99818838
1.6562351 -0.19040899 0.99805403
1.6567423 -0.19031279 0.99813884
1.6572312 -0.19033518 0.99815434
1.6577555 -0.19037849 0.99810177
1.6582673 -0.1903546 0.99815321
1.658779 -0.19033074 0.99820149
1.659971 -0.19050001 0.99818599
1.6602554 -0.19048725 0.99819678
1.6607672 -0.19046341 0.99825346
1.6612785 -0.19043925 0.99832678
1.661733 -0.190418 0.99838501
1.6632736 -0.081518248 0.99821925
1.6635571 -0.081505001 0.99828601
1.6644235 -0.081667006 0.99811554
1.6647069 -0.081653997 0.99817199
1.665959 -0.081596002 0.998083
1.6662407 -0.081581995 0.99825197
1.6667588 -0.0816551 0.99824888
1.6672692 -0.081631251 0.99831754
1.6677237 -0.081610002 0.99831569
1.6682419 -0.081683405 0.99828625
1.6687526 -0.08165925 0.99833697
1.6692612 -0.081635401 0.99846137
1.6697154 -0.081614338 0.99848068
1.6702292 -0.081692502 0.99839151
1.67074 -0.081719249 0.99842101
1.671288 -0.081693664 0.99846071
1.6717046 -0.081674665 0.99845332
1.672435 -0.081873506 0.99845803
1.672662 -0.081862494 0.99846196
1.6735711 -0.081820503 0.99846452
1.6747921 -0.081964999 0.99849802
1.6617595 -0.081245333 0.99838334
1.6622679 -0.081244446 0.99838185
1.6627274 -0.081273004 0.99840879
1.6632226 -0.081291251 0.9984262
1.6637526 -0.081352502 0.99839401
1.6642567 -0.081406727 0.99840087
1.6647809 -0.081226587 0.99845183
1.6652521 -0.081387669 0.99842548
1.665772 -0.08140175 0.99838376
1.667999 -0.081500001 0.998487
1.668112 -0.081495002 0.998492
1.661447 -0.080987997 0.99845397
1.6618708 -0.080772005 0.99846572
1.6622324 -0.080811732 0.99847937
1.6626862 -0.080730796 0.99849206
1.6630369 -0.080913998 0.99849898
1.6610349 -0.079971001 0.99846601
1.661773 -0.079936504 0.99849653
1.66181 -0.076502003 0.99847901
1.6617841 -0.076274604 0.99843693
1.6621245 -0.076318249 0.99846429
1.6617475 -0.075793996 0.998465
1.6622555 -0.075860746 0.99844474
1.6629435 -0.075648502 0.99847305
1.6632544 -0.07579378 0.99849129
1.663568 -0.075618997 0.99849802
1.6616145 -0.074720576 0.99849093
1.66159 -0.074399002 0.99849498
1.6638616 -0.070023 0.99849671
1.664089 -0.070012003 0.998496
1.6713555 -0.065506503 0.99848801
1.671751 -0.065642998 0.99848551
1.672262 -0.065618999 0.99849802
1.6728723 -0.065769665 0.99845737
1.6732521 -0.065841004 0.99849272
1.673517 -0.065829001 0.998496
1.6753925 -0.065742001 0.99847198
1.6756195 -0.065731496 0.998492
1.671291 -0.065311998 0.99846298
1.6716321 -0.065296002 0.99844998
1.672207 -0.065467 0.998492
1.669969 -0.064976998 0.99842399
1.6702397 -0.064824499 0.99843502
1.670651 -0.064944997 0.998438
1.6692896 -0.064336509 0.99846005
1.6696775 -0.064424999 0.99839604
1.6683003 -0.063682802 0.99837726
1.6686981 -0.063748673 0.99839991
1.667456 -0.063068002 0.99845803
1.667797 -0.063248463 0.99837101
1.6682043 -0.063270405 0.99827462
1.668527 -0.063447997 0.99818301
1.6673119 -0.062748283 0.99843389
1.6677477 -0.062763877 0.99834609
1.668116 -0.062815003 0.99818802
1.6668204 -0.062261894 0.99844199
1.6672431 -0.06230069 0.9983874
1.6675477 -0.062272668 0.99829471
1.6663831 -0.06179034 0.99844855
1.6667562 -0.061717384 0.99833655
1.6671417 -0.061726004 0.99829817
1.6663616 -0.061435193 0.99848533
1.666738 -0.061416704 0.99834627
1.6699409 -0.081603996 0.99856102
1.6703384 -0.081585497 0.99854702
1.6707344 -0.081566803 0.99862081
1.6712265 -0.08159484 0.99862421
1.6717832 -0.081543505 0.99869317
1.6722393 -0.081623837 0.9986316
1.6727777 -0.081624255 0.99867821
1.673232 -0.081603251 0.99867427
1.6737829 -0.081664875 0.99866164
1.6742487 -0.081672251 0.99870747
1.6611069 -0.081004001 0.99852097
1.6627922 -0.081105672 0.99856269
1.6632464 -0.081084602 0.99858218
1.6637572 -0.081060752 0.99862278
1.6642454 -0.081096575 0.9985888
1.664528 -0.08123 0.99855202
1.6652851 -0.081194997 0.99852937
1.66572 -0.081174999 0.99855554
1.6662276 -0.081252776 0.99858552
1.6667376 -0.081254557 0.99860489
1.6672492 -0.081205338 0.99861073
1.6677593 -0.081207119 0.99861842
1.6682873 -0.081239253 0.99864388
1.6687473 -0.081253834 0.99861646
1.6692389 -0.081246719 0.99862075
1.6697497 -0.081317253 0.99861884
1.6702603 -0.081293404 0.99864095
1.6707704 -0.081269622 0.99866116
1.6712546 -0.081235781 0.99869901
1.6717583 -0.081234671 0.99878365
1.6722641 -0.081280552 0.99877948
1.6727612 -0.081275403 0.99875593
1.6732715 -0.081251673 0.99877495
1.6737466 -0.081214242 0.99877572
1.6608336 -0.080664754 0.9985078
1.661262 -0.080751002 0.99852556
1.6616435 -0.080782339 0.99854076
1.6622255 -0.080542505 0.99855053
1.6628765 -0.080684252 0.99852377
1.6632603 -0.080778219 0.99852562
1.6637646 -0.080779999 0.99856323
1.6642478 -0.080767378 0.99862671
1.6647316 -0.080755003 0.99858487
1.6652384 -0.080797851 0.99858183
1.66575 -0.080800645 0.99860495
1.6662596 -0.080750167 0.99863088
1.6667533 -0.080754936 0.99865699
1.6672437 -0.080718316 0.99861902
1.6677352 -0.080681384 0.99867326
1.6682495 -0.080761395 0.99868852
1.6687599 -0.080737494 0.99871635
1.669245 -0.080725111 0.99869698
1.6697497 -0.080790639 0.99874544
1.670243 -0.08076708 0.99874538
1.670754 -0.080743402 0.99873936
1.6712632 -0.080719501 0.99880856
1.6717385 -0.080696851 0.99877965
1.6722541 -0.080779448 0.99881321
1.6727391 -0.080745503 0.99877775
1.6732482 -0.080721609 0.9988265
1.6737587 -0.080697879 0.99883181
1.6607497 -0.080335602 0.99852067
1.6612611 -0.080311753 0.99853927
1.6617459 -0.080277897 0.99855614
1.6622522 -0.080277003 0.99857396
1.6627369 -0.080243006 0.9985674
1.6632609 -0.080282234 0.99859202
1.6637584 -0.08030162 0.99859989
1.6642514 -0.080249459 0.99863255
1.6647413 -0.080242231 0.99862897
1.665234 -0.080232695 0.99865431
1.6657174 -0.080213085 0.99865556
1.6662585 -0.080277659 0.99863964
1.6667411 -0.080245495 0.99866796
1.6672238 -0.080213219 0.9986971
1.667734 -0.08020889 0.99869061
1.6682438 -0.08026623 0.99869323
1.6687531 -0.080270931 0.99872559
1.6692644 -0.080218464 0.99874729
1.6697742 -0.080223426 0.99876469
1.6702583 -0.080251217 0.99874675
1.670738 -0.080261126 0.99870837
1.6712478 -0.0802375 0.99874371
1.6717584 -0.080213621 0.99875504
1.6722547 -0.080288403 0.99881113
1.6727656 -0.080264762 0.99880612
1.6732392 -0.080257691 0.99881727
1.673731 -0.080221087 0.998824
1.6602705 -0.079726368 0.9985553
1.6607583 -0.079778418 0.9985618
1.6612687 -0.079739705 0.99857986
1.6617571 -0.079693638 0.99856049
1.6622347 -0.079709761 0.99858928
1.6627272 -0.079757184 0.99861753
1.6632597 -0.079758883 0.99860233
1.6637443 -0.07974834 0.99861771
1.6642511 -0.079700671 0.9986642
1.6647352 -0.079690002 0.99869132
1.6652464 -0.079666503 0.99865431
1.6657873 -0.079712898 0.99868947
1.6662434 -0.079738393 0.99872899
1.6667633 -0.079842784 0.99870884
1.6672457 -0.079806373 0.99874741
1.667729 -0.079770222 0.99873269
1.6682394 -0.079774223 0.99870569
1.6687504 -0.079722561 0.99874806
1.6692606 -0.079726674 0.99873394
1.6697427 -0.079690248 0.99876273
1.6702418 -0.079738751 0.99877709
1.6707391 -0.079770148 0.99876297
1.6712159 -0.079778001 0.99876493
1.6717604 -0.079822905 0.99875593
1.6722689 -0.079798996 0.99883926
1.6727232 -0.079777747 0.99883717
1.6732336 -0.079754107 0.99884748
1.673769 -0.079759784 0.99885529
1.6602848 -0.079223908 0.99856693
1.6607369 -0.079194844 0.99858463
1.6612432 -0.079246879 0.99860263
1.661754 -0.079223096 0.99861997
1.6622653 -0.079199247 0.99862003
1.6627638 -0.079281546 0.99860841
1.6632541 -0.079242162 0.99863774
1.6637486 -0.079251699 0.99863476
1.6642253 -0.079252183 0.99866462
1.6647395 -0.079296 0.99868298
1.6652507 -0.079272099 0.99864262
1.6657617 -0.079248495 0.99861705
1.6662453 -0.079237558 0.99869138
1.666746 -0.079297289 0.99868619
1.6672392 -0.079274833 0.99871492
1.66775 -0.079251073 0.99872994
1.6682603 -0.079227418 0.9987551
1.6687214 -0.079223335 0.99876392
1.6692445 -0.079291113 0.99879998
1.6697285 -0.079258502 0.99881274
1.6702393 -0.079234801 0.99882716
1.6707497 -0.079210997 0.99883568
1.6712846 -0.07925716 0.99883074
1.671768 -0.079266414 0.99882829
1.6722605 -0.07924436 0.99886113
1.6727688 -0.079219162 0.99882746
1.673228 -0.079216182 0.99884468
1.673756 -0.079270691 0.9988758
1.6607546 -0.078842603 0.99858016
1.6612349 -0.078880504 0.99860328
1.6617458 -0.078856744 0.99860758
1.6622568 -0.078832902 0.99863905
1.6627679 -0.07880912 0.9986614
1.6632526 -0.078775562 0.99865955
1.6637586 -0.07877434 0.9986707
1.6642791 -0.078809276 0.998689
1.6647594 -0.078790575 0.99866176
1.6652521 -0.078779921 0.99868649
1.6657456 -0.07875593 0.99870181
1.6662527 -0.07873439 0.99875188
1.6667479 -0.078723699 0.99869925
1.6672293 -0.078723177 0.99868065
1.6677446 -0.078757122 0.99878836
1.6682277 -0.078743555 0.99878865
1.668753 -0.078731902 0.9987877
1.6692458 -0.07879851 0.99874836
1.6697543 -0.078748308 0.99884474
1.6702466 -0.078754149 0.99888241
1.6707567 -0.078701362 0.99884325
1.6712493 -0.078692496 0.99884307
1.6717414 -0.078758501 0.99887174
1.6722522 -0.078734756 0.99887621
1.6727635 -0.078710996 0.99885255
1.6732879 -0.078721665 0.99888676
1.6737343 -0.07878723 0.99889481
1.6602509 -0.078241006 0.99861723
1.660741 -0.078203537 0.99863768
1.6612382 -0.078276746 0.9986468
1.6617491 -0.078252904 0.99864656
1.6622602 -0.078229249 0.99863005
1.6627709 -0.078205302 0.99866611
1.6632818 -0.078181505 0.99872255
1.6637357 -0.078160375 0.99869919
1.6642469 -0.078136601 0.99868101
1.6647576 -0.07811287 0.99872601
1.6652296 -0.07815434 0.9987123
1.6657765 -0.078160249 0.99879527
1.6662307 -0.078139253 0.99879199
1.6667426 -0.078115605 0.99873441
1.667299 -0.078264713 0.99872959
1.6677607 -0.078249775 0.99875778
1.6682705 -0.078271225 0.99877536
1.6687529 -0.078226 0.99880874
1.6691775 -0.078274332 0.99880117
1.6697429 -0.078384198 0.99880123
1.6702545 -0.078360498 0.99875075
1.6707642 -0.078336604 0.99880296
1.6712735 -0.078312747 0.99886829
1.6717333 -0.07839188 0.99885744
1.6722428 -0.078368105 0.9989152
1.6727544 -0.078344248 0.99887753
1.6732655 -0.0783206 0.99887031
1.6737752 -0.078296877 0.99890578
1.6602376 -0.07772591 0.99863046
1.6607763 -0.077734992 0.99865502
1.661266 -0.077766001 0.99866456
1.6617589 -0.077757671 0.99866593
1.6622335 -0.077751458 0.99866503
1.6627135 -0.077730589 0.99871612
1.6632557 -0.077802449 0.99874413
1.6637636 -0.07775633 0.99873185
1.6642479 -0.077745125 0.998725
1.6647586 -0.077721208 0.99876654
1.6652889 -0.077795416 0.99876922
1.6657616 -0.077773623 0.9988153
1.666253 -0.077734925 0.99880964
1.6667454 -0.07774277 0.99880469
1.6672252 -0.077722162 0.99882233
1.6677613 -0.077791557 0.99880356
1.6682688 -0.077746108 0.9988969
1.6687524 -0.0777345 0.99887341
1.6692646 -0.077790499 0.99889028
1.6697463 -0.077769078 0.99886954
1.6702572 -0.077773921 0.99891442
1.6707268 -0.077757299 0.99895096
1.6712795 -0.077755228 0.99889821
1.671716 -0.077740587 0.99889278
1.6722715 -0.07774929 0.99892265
1.6727561 -0.077740207 0.99897051
1.6732677 -0.0777165 0.99894041
1.6736835 -0.077729002 0.99893105
1.660231 -0.077295594 0.99860615
1.660742 -0.077271879 0.99862707
1.6612532 -0.077247992 0.99864179
1.6617641 -0.07722412 0.99866146
1.6622185 -0.077202871 0.9986763
1.6627598 -0.077232338 0.99867553
1.6632442 -0.077264085 0.99871796
1.6637554 -0.077240199 0.99874175
1.6642686 -0.077329755 0.99876702
1.6647232 -0.077308625 0.99875188
1.665234 -0.077284895 0.998734
1.6657447 -0.077261001 0.99875402
1.6662552 -0.077237099 0.99880791
1.666766 -0.077213377 0.99879122
1.6672851 -0.077236548 0.99881625
1.6677637 -0.077271007 0.99883944
1.668239 -0.077248834 0.99884242
1.6687506 -0.077225201 0.99880469
1.6692433 -0.077271782 0.99882585
1.6697475 -0.077294558 0.99884003
1.6702526 -0.077247992 0.99887723
1.6707364 -0.077236868 0.99892873
1.6712743 -0.07720045 0.99887955
1.6717745 -0.077250205 0.99890387
1.6722391 -0.077284366 0.99895114
1.6727833 -0.077244751 0.99893713
1.6731963 -0.077199496 0.99894249
1.6607302 -0.076671891 0.99860013
1.6612271 -0.076636627 0.9986068
1.6617196 -0.076660141 0.99865007
1.6622624 -0.0766965 0.99866676
1.6627731 -0.076672606 0.99873221
1.6632843 -0.076648749 0.99874479
1.6637383 -0.0766275 0.99876475
1.6642541 -0.07677523 0.99876308
1.6647661 -0.076794438 0.99876529
1.6652762 -0.076727666 0.99873692
1.6657585 -0.076726496 0.998815
1.6662416 -0.076725669 0.99883026
1.6667572 -0.076873258 0.99881005
1.6672688 -0.076849602 0.9987756
1.6677794 -0.076825999 0.99878699
1.6682335 -0.076804742 0.99880707
1.6687437 -0.076780997 0.99881899
1.6692798 -0.076857008 0.9988299
1.6697661 -0.076851092 0.99886286
1.6702764 -0.076827377 0.99887425
1.6707307 -0.076806128 0.99887162
1.6712407 -0.076782405 0.99890846
1.6717508 -0.076758496 0.99892867
1.6722057 -0.076737501 0.99889189
1.67281 -0.076670006 0.99891877
1.673225 -0.076689884 0.99897099
1.6614325 -0.076077998 0.99850452
1.6617652 -0.076114498 0.99851102
1.6622995 -0.0762529 0.99854261
1.6627574 -0.076215766 0.99856132
1.6632074 -0.076283447 0.99856389
1.6637343 -0.076294899 0.99859232
1.664245 -0.076270998 0.99862081
1.6647558 -0.076247208 0.99860859
1.665267 -0.0762235 0.99858773
1.6657515 -0.076187886 0.99864334
1.6662568 -0.076190114 0.99869496
1.6667435 -0.076282613 0.99873334
1.6672542 -0.076225854 0.99870288
1.6677686 -0.076343559 0.99878162
1.6682508 -0.076308995 0.99878162
1.6687332 -0.076274447 0.99879199
1.6692435 -0.076274671 0.99882168
1.6697538 -0.076226898 0.99882919
1.6702648 -0.076226994 0.99884254
1.670747 -0.076192625 0.99883986
1.671222 -0.076143622 0.9988479
1.6717675 -0.076144747 0.99888533
1.6722494 -0.076110445 0.99889398
1.672531 -0.076217003 0.99899799
1.6613016 -0.0756284 0.99850684
1.661742 -0.07570909 0.99851221
1.6622505 -0.075588442 0.99853253
1.6627259 -0.07577087 0.99853915
1.6634365 -0.075804994 0.99856746
1.6637591 -0.075819999 0.99855876
1.6642526 -0.075754002 0.99858367
1.664746 -0.075744003 0.99856013
1.6652569 -0.07572028 0.99857354
1.6657676 -0.075696334 0.99859905
1.6662264 -0.075746901 0.99862003
1.6667519 -0.075730547 0.99863797
1.6672363 -0.075718001 0.99861926
1.6677501 -0.075778931 0.99863642
1.6682621 -0.075784385 0.99863863
1.6687533 -0.07574562 0.99865413
1.6692443 -0.075709 0.99866152
1.6697371 -0.075715698 0.99868429
1.67024 -0.075759895 0.99871278
1.6707525 -0.075759001 0.99875778
1.6712612 -0.075712234 0.9987365
1.671746 -0.075701378 0.99870491
1.6722554 -0.075677499 0.99875224
1.6727642 -0.075765997 0.99879587
1.6732571 -0.075758576 0.99880707
1.6737363 -0.075740375 0.99883395
1.6742296 -0.075805619 0.99884015
1.6612525 -0.075196438 0.9985497
1.6617641 -0.075189665 0.99856144
1.6622745 -0.075148672 0.99857503
1.6627554 -0.075253837 0.99856913
1.6632482 -0.07524465 0.9986099
1.6637578 -0.075191922 0.99862248
1.6642473 -0.075266451 0.99862778
1.6647544 -0.075273782 0.9986459
1.6652384 -0.075235628 0.9986617
1.6657498 -0.075212009 0.99864733
1.6662688 -0.075270906 0.9986667
1.6667455 -0.075264506 0.99863601
1.6672293 -0.075292088 0.99863642
1.6677577 -0.075350001 0.99866647
1.6682656 -0.075307772 0.99871647
1.6687489 -0.075294502 0.99873263
1.6692322 -0.075281113 0.99873978
1.6697397 -0.075238772 0.99878818
1.6702552 -0.075324148 0.99873227
1.6707634 -0.075275235 0.99875605
1.671236 -0.075265929 0.99880147
1.6717466 -0.075242266 0.99881434
1.6722577 -0.075218499 0.99880898
1.6727494 -0.07520771 0.99882126
1.6732292 -0.075188734 0.99883705
1.6737803 -0.075290002 0.99882293
1.6742547 -0.075286776 0.99884814
1.6612176 -0.074837007 0.99854958
1.6618284 -0.074819274 0.99854845
1.6622411 -0.074739285 0.99856198
1.6627393 -0.074740216 0.998577
1.6632308 -0.074751645 0.99861163
1.6637405 -0.074755616 0.99861866
1.6642518 -0.07478483 0.99863464
1.6647645 -0.074779168 0.99862874
1.6652598 -0.074745119 0.99865556
1.6657418 -0.074716941 0.99865609
1.6662402 -0.074710496 0.99866992
1.666749 -0.074668668 0.99868184
1.6672738 -0.074696094 0.99870217
1.6677426 -0.074716642 0.99871814
1.6682411 -0.074741177 0.99872065
1.6687378 -0.07470011 0.99877572
1.6692473 -0.074685015 0.99877912
1.6697357 -0.074672252 0.99876136
1.6702458 -0.074785121 0.99885261
1.6707296 -0.074771337 0.99879849
1.6712395 -0.074730553 0.99881727
1.6717504 -0.074723668 0.99883229
1.672259 -0.074682787 0.9988929
1.6727703 -0.074676119 0.99888676
1.6732851 -0.074714892 0.99888772
1.6737416 -0.074726082 0.99888343
1.6742539 -0.07473129 0.99886823
1.6612766 -0.074203752 0.99854994
1.6617681 -0.074270859 0.99856722
1.6622566 -0.074263297 0.99854416
1.6627676 -0.074239381 0.99856496
1.6632702 -0.074292623 0.99857593
1.6637614 -0.074285924 0.99860346
1.6642356 -0.074262753 0.99862087
1.6647463 -0.074239127 0.99862921
1.665257 -0.074215256 0.99868381
1.6657232 -0.074271105 0.99866325
1.6662527 -0.074257888 0.99868882
1.6667362 -0.074245133 0.99868411
1.6672468 -0.074221209 0.99871063
1.6677914 -0.074278459 0.99877965
1.6682534 -0.07427416 0.99875438
1.6687452 -0.074238315 0.99876064
1.6692563 -0.074242219 0.99878722
1.6697901 -0.074231602 0.99882144
1.6702484 -0.074364685 0.9988265
1.6707524 -0.074343361 0.99883282
1.6712501 -0.074344225 0.99882656
1.6717592 -0.074297622 0.99884099
1.672256 -0.074292056 0.9988665
1.6727518 -0.074268892 0.99889356
1.673247 -0.074227296 0.99890643
1.673735 -0.074241824 0.99889004
1.6742724 -0.074262999 0.99888909
1.6607457 -0.073701255 0.99859923
1.6612568 -0.073677503 0.99863356
1.6617675 -0.073653758 0.99861169
1.6622218 -0.073632501 0.99863821
1.6627077 -0.073620893 0.99866349
1.6632445 -0.073682748 0.99867272
1.6637553 -0.073659003 0.99868661
1.664266 -0.07363525 0.99871027
1.6647201 -0.073614001 0.99872673
1.6652308 -0.073590405 0.99874163
1.6657795 -0.07377962 0.99873722
1.6662605 -0.073733225 0.99875599
1.6667439 -0.073734626 0.99876511
1.6671985 -0.07380572 0.9987219
1.667747 -0.073902741 0.99870795
1.6682581 -0.073879205 0.99870884
1.6687683 -0.073855251 0.99873877
1.6692204 -0.073834002 0.99883306
1.669731 -0.073810406 0.99885017
1.6702794 -0.073875144 0.99881995
1.670741 -0.073856995 0.99882275
1.671248 -0.073856778 0.99885929
1.6717317 -0.073822498 0.99887216
1.6722418 -0.073798895 0.99888629
1.6727517 -0.073775128 0.99891776
1.6732365 -0.073741004 0.99888843
1.6737629 -0.073766403 0.99885398
1.6742593 -0.073796071 0.99888247
1.6612463 -0.073312879 0.99858904
1.6617575 -0.073289104 0.9986062
1.6622684 -0.07326512 0.99862373
1.6627737 -0.073278598 0.99862403
1.6632544 -0.073293924 0.99864239
1.6637477 -0.073299237 0.99864137
1.6642573 -0.073248938 0.99869239
1.66475 -0.073238745 0.99870384
1.6652429 -0.073229432 0.99870163
1.6657228 -0.073210731 0.99872434
1.6662425 -0.073273562 0.998703
1.6667508 -0.073231116 0.9987486
1.6672754 -0.07327427 0.99878401
1.6677567 -0.073287502 0.99875402
1.6682489 -0.073263749 0.99884081
1.6687418 -0.073253289 0.99883729
1.6692514 -0.073203541 0.99879539
1.6697627 -0.073205851 0.99886155
1.6702515 -0.073229447 0.99885792
1.6707331 -0.073236376 0.99884892
1.671243 -0.073212601 0.99889916
1.6717526 -0.073188879 0.99893439
1.6722643 -0.073165298 0.99890155
1.6727751 -0.0731415 0.99889249
1.673058 -0.073128 0.99893045
1.6736906 -0.07314086 0.99893475
1.6612632 -0.072764792 0.99860251
1.6617564 -0.072756581 0.9986136
1.6622497 -0.072733998 0.99862027
1.6627582 -0.072709538 0.99864727
1.6632611 -0.072798334 0.99868321
1.6637704 -0.072750993 0.99869239
1.6642535 -0.072740376 0.99870074
1.6647366 -0.072729662 0.99871063
1.665246 -0.072682343 0.99875766
1.6657858 -0.072738998 0.9987632
1.6662621 -0.072740927 0.99878007
1.6667544 -0.072751619 0.99879271
1.6672331 -0.072776608 0.99880975
1.6677368 -0.072797008 0.99882638
1.6682475 -0.072773099 0.99883789
1.6687601 -0.072749622 0.99874556
1.6692419 -0.072739549 0.99885666
1.6697489 -0.07269077 0.99886906
1.6702602 -0.072784089 0.99889535
1.6707507 -0.072746433 0.99888825
1.6712437 -0.07273858 0.99889433
1.67172 -0.072770588 0.99892271
1.6722541 -0.072800249 0.99890065
1.6727647 -0.072776496 0.99889892
1.6732752 -0.072752751 0.99890745
1.6737469 -0.072820999 0.99894136
1.6742587 -0.072797 0.99893653
1.6607422 -0.07221619 0.99863929
1.6612294 -0.072273999 0.99865234
1.6617403 -0.072250001 0.99867362
1.6622512 -0.072226375 0.99868912
1.6627619 -0.072202407 0.99870986
1.6632595 -0.072281666 0.99870723
1.6637336 -0.072275393 0.99872309
1.6642151 -0.072258748 0.99874353
1.6647583 -0.072337441 0.99876499
1.6652673 -0.072293997 0.99877381
1.6657505 -0.072281376 0.99878836
1.6662338 -0.072268777 0.99878913
1.6667426 -0.072225332 0.99882042
1.6672618 -0.072289497 0.99883628
1.6677547 -0.072283141 0.99882621
1.6682471 -0.072259754 0.99885625
1.66874 -0.072250068 0.99886769
1.6692482 -0.072199158 0.99887615
1.6697278 -0.072205663 0.99889821
1.6702483 -0.072269343 0.99891132
1.6707317 -0.072236121 0.99894601
1.671242 -0.072212301 0.99896473
1.6717694 -0.072249599 0.99892759
1.672236 -0.072269432 0.99888003
1.6727599 -0.072280459 0.99894065
1.6732378 -0.072238311 0.99891865
1.67372 -0.072236098 0.99892002
1.6608089 -0.071874999 0.99865532
1.6612659 -0.071874231 0.99867409
1.6617497 -0.071862251 0.99865067
1.6622337 -0.071850002 0.99870235
1.6627419 -0.071805671 0.99869782
1.6632553 -0.071802445 0.99874073
1.6637635 -0.071758002 0.99876404
1.6642792 -0.071796201 0.99877578
1.6647362 -0.071809843 0.9987883
1.6652459 -0.071785137 0.99880391
1.6657577 -0.071762308 0.99880207
1.6662489 -0.071725078 0.99884927
1.6667399 -0.071729243 0.99885505
1.6672513 -0.071679927 0.99887544
1.6677517 -0.071767889 0.99887359
1.6682616 -0.071725667 0.99888641
1.6687443 -0.071712375 0.99889147
1.6692274 -0.071699105 0.99887627
1.6697544 -0.0716912 0.99891931
1.6702496 -0.071769863 0.99893188
1.6707267 -0.071772896 0.99894351
1.6712325 -0.071765892 0.99893469
1.671839 -0.071650997 0.99895501
1.672349 -0.071627498 0.99896455
1.6729155 -0.071601003 0.99899352
1.673841 -0.071993999 0.99897206
1.6607307 -0.071206912 0.99866122
1.6612424 -0.071263254 0.99870497
1.6617535 -0.071239308 0.99870121
1.6622642 -0.071215622 0.99871057
1.6627493 -0.071205661 0.99872619
1.6632555 -0.071157113 0.9987452
1.6637402 -0.071147002 0.99876088
1.6642249 -0.071136884 0.9987759
1.664754 -0.071212001 0.99879551
1.665265 -0.071188398 0.99881405
1.6657755 -0.07116475 0.99882644
1.6662292 -0.071143493 0.99884498
1.6667398 -0.071119599 0.99886286
1.6672505 -0.071096003 0.99888575
1.6677701 -0.071257219 0.99889398
1.6682539 -0.071257874 0.99887985
1.6687368 -0.071258456 0.9989211
1.6691989 -0.071243726 0.99894005
1.6697663 -0.0713958 0.99898064
1.6702771 -0.071372256 0.99897695
1.67056 -0.071359001 0.998999
1.6714125 -0.071319506 0.99895597
1.6716794 -0.071400166 0.99896419
1.672376 -0.071275003 0.99898899
1.672683 -0.071446002 0.99900001
1.6607919 -0.070845999 0.99868459
1.6612601 -0.070870876 0.99869859
1.6617528 -0.070726715 0.99863935
1.6622447 -0.070754506 0.99868047
1.6627363 -0.070801996 0.99874747
1.6632471 -0.0707784 0.99876827
1.663758 -0.070754498 0.99878395
1.6642665 -0.070747808 0.99879837
1.6647559 -0.070802391 0.99879527
1.6652303 -0.070779085 0.99883115
1.6657411 -0.07075534 0.99884868
1.6662515 -0.07073158 0.99886048
1.6667273 -0.070723929 0.99882579
1.6672486 -0.070776783 0.99881798
1.6677322 -0.070763744 0.99887037
1.6682425 -0.070739903 0.99891514
1.6687529 -0.070716128 0.99892515
1.669268 -0.070756368 0.99892038
1.6697447 -0.070758849 0.99894756
1.670258 -0.070763074 0.99893063
1.6707792 -0.070742458 0.99894345
1.6711897 -0.070654862 0.99896479
1.6715471 -0.070501 0.99890399
1.6728677 -0.070835009 0.99895704
1.673265 -0.070816495 0.99894828
1.6622821 -0.070244014 0.99852133
1.662762 -0.07029134 0.99856424
1.6632355 -0.070283927 0.99855924
1.6637135 -0.070288815 0.99857187
1.6642573 -0.070278719 0.99855
1.6647656 -0.070297338 0.99854207
1.6652486 -0.070284002 0.9985891
1.665732 -0.070270777 0.99860793
1.6662408 -0.070228554 0.9985981
1.6667763 -0.070250399 0.99865848
1.6672622 -0.070273772 0.99872816
1.6677557 -0.070279621 0.99877965
1.6682632 -0.070227005 0.99879134
1.6687562 -0.070217922 0.99881858
1.6692482 -0.070208073 0.9988271
1.6696978 -0.070167005 0.99876738
1.6702175 -0.070240252 0.9988516
1.6707708 -0.070188254 0.9988842
1.6712382 -0.070192747 0.99888998
1.6717228 -0.07021936 0.99889278
1.672264 -0.070040248 0.99881196
1.6727178 -0.070018999 0.99882096
1.6731586 -0.07014133 0.9988817
1.6738715 -0.070392996 0.99898148
1.6741409 -0.070271 0.99899799
1.6622838 -0.069596842 0.99852836
1.662732 -0.069668502 0.9985525
1.6632427 -0.0696446 0.99857199
1.6637537 -0.069620997 0.99861479
1.6642916 -0.069663666 0.99867082
1.664772 -0.069799453 0.99860954
1.6652547 -0.069754496 0.99860871
1.6657374 -0.069709338 0.9986375
1.6662259 -0.069759995 0.99863225
1.666755 -0.069887742 0.99868202
1.6672659 -0.069863997 0.99870062
1.6677762 -0.069840252 0.99871379
1.6682299 -0.069819003 0.99873
1.6687405 -0.069795199 0.998757
1.669251 -0.069771253 0.99876499
1.6697807 -0.069854558 0.99876332
1.6702647 -0.069845378 0.99881041
1.6707499 -0.069836333 0.99878883
1.6712569 -0.069785774 0.99873853
1.6717422 -0.069776751 0.99873048
1.6722525 -0.069753006 0.99874747
1.6727625 -0.069729246 0.99877489
1.6732692 -0.069787413 0.99883735
1.6737471 -0.069762394 0.99885124
1.6742398 -0.069770858 0.99888116
1.6747488 -0.069718711 0.99888909
1.6617386 -0.069220752 0.99867964
1.6622686 -0.069224268 0.99865013
1.6627549 -0.069276504 0.99859995
1.6632485 -0.069251075 0.99862605
1.663747 -0.069340333 0.99862069
1.6642312 -0.069327377 0.99866593
1.6647415 -0.069303505 0.99868566
1.6652527 -0.069279753 0.99864876
1.6657366 -0.069266669 0.99866509
1.6662617 -0.069251396 0.99867719
1.6667407 -0.069314778 0.99869752
1.667248 -0.069264218 0.99871713
1.6677411 -0.069254331 0.99873447
1.6682516 -0.069230534 0.99875355
1.6687622 -0.06920667 0.9987545
1.6692432 -0.069211461 0.99878424
1.6697727 -0.069247745 0.99879944
1.6702269 -0.069226749 0.99878693
1.6707379 -0.0692029 0.99877518
1.6712457 -0.069178998 0.99889165
1.671756 -0.069155298 0.99891198
1.6722677 -0.069131501 0.99887025
1.6727525 -0.069119334 0.99887067
1.6732277 -0.069142401 0.99890101
1.6737373 -0.069155999 0.99887276
1.6742468 -0.069132403 0.99890041
1.6747582 -0.069108494 0.99887502
1.6752684 -0.069265448 0.99881023
1.6617348 -0.068787098 0.99860042
1.6622455 -0.068763249 0.99864399
1.6627563 -0.068739504 0.99864244
1.6632675 -0.068715751 0.99865586
1.6637392 -0.068792924 0.99868822
1.6642312 -0.068755858 0.99867314
1.6647419 -0.068761542 0.99868083
1.6652528 -0.068708427 0.99869895
1.6657491 -0.068732172 0.99871731
1.6662467 -0.068773501 0.99873787
1.6667292 -0.06873966 0.99876225
1.6672391 -0.068738446 0.99876434
1.6677502 -0.06869223 0.99878693
1.6682601 -0.068690881 0.99880582
1.6687424 -0.068657249 0.99882579
1.6692427 -0.068661101 0.99883908
1.6697387 -0.068751581 0.99883604
1.6702491 -0.068824492 0.99883896
1.6707604 -0.068800703 0.99882048
1.6712704 -0.068776876 0.99883837
1.6717249 -0.068755873 0.99882823
1.6722351 -0.068732105 0.99884814
1.6727452 -0.068708248 0.99885637
1.6732658 -0.068772078 0.99891078
1.6737592 -0.068763673 0.99890804
1.6742219 -0.068779252 0.99890184
1.6747019 -0.068868175 0.99888778
1.6752099 -0.068828285 0.99887437
1.6622407 -0.068267696 0.99857908
1.6627527 -0.068272784 0.99860227
1.6632624 -0.068220161 0.99861032
1.6637553 -0.068226233 0.99865115
1.664238 -0.0682493 0.99864113
1.6647425 -0.068263873 0.99864733
1.6652535 -0.068240002 0.9986788
1.6657823 -0.068247221 0.99872571
1.6662563 -0.068302356 0.998716
1.6667637 -0.068251468 0.99873233
1.667238 -0.068243414 0.99873495
1.6677485 -0.068219677 0.99877018
1.6682587 -0.068195842 0.9987902
1.6687609 -0.068264209 0.99881285
1.6692712 -0.068240374 0.99882811
1.6697249 -0.068219252 0.99884379
1.6702399 -0.068292402 0.99886554
1.6707505 -0.068268582 0.99887031
1.6712621 -0.068244934 0.99883366
1.6717724 -0.068221167 0.99884933
1.6722052 -0.068240501 0.99887097
1.6727421 -0.068274997 0.99886638
1.6732519 -0.068251126 0.99890226
1.6737616 -0.068227507 0.99893373
1.6742841 -0.068253376 0.99894422
1.67476 -0.06828028 0.99894571
1.6617293 -0.067718901 0.99858081
1.6622571 -0.067773499 0.99858952
1.6627678 -0.067749619 0.99862713
1.6632221 -0.067728497 0.99863338
1.6637329 -0.067704603 0.99864382
1.6642526 -0.067765728 0.99868041
1.6647466 -0.067761734 0.9986524
1.6652573 -0.067737922 0.99866337
1.6657509 -0.06772878 0.99869448
1.6662308 -0.067731403 0.99871653
1.6667268 -0.067766495 0.99870914
1.6672376 -0.067742698 0.99869794
1.667748 -0.067718998 0.99872226
1.6682583 -0.0676952 0.9987545
1.6687554 -0.067777663 0.99879086
1.6692483 -0.067770213 0.99879515
1.6697564 -0.067714386 0.99881691
1.6702486 -0.067828223 0.99883252
1.6707562 -0.067781553 0.99883205
1.6712403 -0.067770623 0.99883038
1.6717509 -0.067746803 0.99883997
1.6722941 -0.067797102 0.9988929
1.6727211 -0.067791902 0.99889451
1.673246 -0.067754544 0.99891669
1.6737391 -0.067760766 0.99890351
1.6742482 -0.067709714 0.99891865
1.6747367 -0.067752458 0.99893504
1.6612484 -0.067127004 0.99868602
1.6617498 -0.067144908 0.99869412
1.6622447 -0.06722407 0.99865866
1.6627561 -0.067181461 0.99867481
1.6632664 -0.067176506 0.99869072
1.6637341 -0.067173801 0.99873561
1.66418 -0.067261331 0.99873054
1.6647488 -0.067366399 0.99870104
1.665259 -0.067342743 0.99872148
1.6657698 -0.067318596 0.99874061
1.6663096 -0.067379713 0.99872935
1.6667402 -0.067373998 0.99870121
1.6672512 -0.067350201 0.99870008
1.667762 -0.067326501 0.99869466
1.6682471 -0.067292787 0.99869424
1.6687523 -0.067291223 0.99872231
1.6692369 -0.067257501 0.99875063
1.6697472 -0.067233704 0.99877656
1.6702557 -0.067303419 0.99882972
1.6707661 -0.067279533 0.99882656
1.6712768 -0.06725584 0.99885416
1.67173 -0.067234591 0.99887431
1.6722405 -0.067210808 0.99887216
1.6727322 -0.067252554 0.99892884
1.6732115 -0.067301005 0.99893016
1.6737672 -0.067326494 0.99896377
1.674396 -0.0672075 0.99894905
1.674742 -0.067256182 0.99895835
1.6612401 -0.066725716 0.99866599
1.6617491 -0.066691086 0.99866861
1.662243 -0.066683926 0.99862063
1.6627519 -0.066640928 0.99867129
1.663245 -0.066627175 0.99869365
1.6637553 -0.066657946 0.99874073
1.6642457 -0.066730052 0.998757
1.6647289 -0.066801473 0.99876481
1.6652542 -0.06685546 0.99879682
1.6657462 -0.066831544 0.99881822
1.666237 -0.066787928 0.99879968
1.6667292 -0.066786848 0.99883062
1.6672397 -0.066748284 0.99883991
1.6677508 -0.066739388 0.99883217
1.6682616 -0.066700786 0.99880481
1.6687249 -0.066723302 0.99883026
1.6692495 -0.066754602 0.99884158
1.6697606 -0.066730745 0.99883938
1.6702452 -0.06670922 0.99877208
1.6707529 -0.066683777 0.99884862
1.6712643 -0.066661559 0.99887383
1.6717719 -0.066636235 0.99893934
1.6722558 -0.066614501 0.99890971
1.6727546 -0.066692255 0.99892062
1.673251 -0.066711001 0.99892622
1.6736912 -0.066777721 0.99895787
1.674292 -0.06671863 0.99897218
1.6747092 -0.066753507 0.99895686
1.6612448 -0.066263802 0.99869078
1.6617558 -0.066239998 0.99867588
1.6622666 -0.066216491 0.99866313
1.6627775 -0.066192754 0.99867815
1.6632317 -0.066171497 0.99869525
1.6637424 -0.066147797 0.99871582
1.6642973 -0.0663056 0.99871981
1.664771 -0.066359803 0.99872798
1.6652533 -0.066395722 0.99873191
1.6657466 -0.066360421 0.99876493
1.6662394 -0.066332072 0.99878836
1.6667482 -0.066319779 0.99877977
1.6672614 -0.066284716 0.9987914
1.6677686 -0.066272005 0.99884653
1.668242 -0.06624417 0.99889559
1.6687552 -0.066250622 0.99887979
1.6692425 -0.066267557 0.99886191
1.6697371 -0.066274069 0.99883729
1.6702619 -0.066295005 0.99882883
1.6707546 -0.066287622 0.99886519
1.6712625 -0.066244856 0.9989053
1.671731 -0.066242993 0.99897528
1.6722833 -0.066210873 0.99893337
1.6727589 -0.066179 0.99884212
1.6732544 -0.066171765 0.99879527
1.6737475 -0.066135004 0.99872053
1.6742402 -0.066110611 0.99868113
1.6747545 -0.066185892 0.99875462
1.6752182 -0.06621936 0.99884272
1.6612442 -0.065776259 0.99872446
1.6617551 -0.06575267 0.99873567
1.6622658 -0.065728836 0.99873662
1.6627278 -0.065724254 0.99875891
1.6632519 -0.065793894 0.99876213
1.6637371 -0.065760374 0.99878162
1.6642482 -0.065809071 0.99881822
1.6647593 -0.065810315 0.99883544
1.665252 -0.065760456 0.99882758
1.6657414 -0.065752849 0.99884027
1.6662349 -0.065741926 0.99883687
1.6667448 -0.065692998 0.99888283
1.6672361 -0.065731004 0.99887419
1.6677685 -0.065740667 0.99891305
1.6682498 -0.065726876 0.99896455
1.6687329 -0.065713108 0.9989019
1.6692444 -0.065672338 0.99887764
1.6698124 -0.065723598 0.9988839
1.6702673 -0.065733694 0.99887747
1.670741 -0.065726578 0.99884719
1.6712172 -0.065752923 0.99871063
1.6717504 -0.065821335 0.99863279
1.6722629 -0.06576778 0.99856377
1.6726601 -0.065734506 0.99856722
1.673174 -0.065844998 0.99856901
1.6737989 -0.065815747 0.99855673
1.6741409 -0.065799996 0.99851251
1.6753693 -0.065990001 0.99857539
1.6757673 -0.065929607 0.99866658
1.6762347 -0.065868281 0.99867892
1.6612592 -0.065205701 0.99869519
1.6617322 -0.065183833 0.99869192
1.6622359 -0.065257445 0.99875587
1.6627601 -0.065242901 0.99872583
1.663251 -0.065307721 0.99873114
1.6637615 -0.065256931 0.99877429
1.6642538 -0.065262541 0.99883956
1.6647443 -0.065224543 0.99885488
1.6652366 -0.065188311 0.99884039
1.6657331 -0.065245546 0.9988116
1.6662593 -0.065245748 0.99882138
1.6667429 -0.06523411 0.99888104
1.6672704 -0.065243997 0.99891824
1.6677439 -0.06529139 0.99893451
1.6682531 -0.06523829 0.99886733
1.6687481 -0.065229923 0.99874914
1.6692437 -0.065221295 0.99863374
1.6697621 -0.065281622 0.99861807
1.6702483 -0.065270334 0.99856514
1.6707551 -0.065224446 0.99855274
1.6711793 -0.065266252 0.99855977
1.6717123 -0.065457001 0.99854487
1.672091 -0.065471999 0.99858397
1.676291 -0.065431751 0.99863225
1.6767895 -0.0653776 0.99867642
1.6612682 -0.064717002 0.99872887
1.6617758 -0.06471733 0.99871129
1.6622416 -0.06475123 0.99872816
1.6627535 -0.064759851 0.99875498
1.6632335 -0.064741723 0.99878711
1.6637521 -0.064795338 0.99879181
1.6642594 -0.064795665 0.99879849
1.6647432 -0.064760998 0.99883908
1.6652542 -0.064737499 0.99882239
1.6657753 -0.064790085 0.99883932
1.6662515 -0.064784072 0.99885017
1.6667597 -0.064762473 0.9988566
1.6672338 -0.064739414 0.99886173
1.6677445 -0.064715736 0.99887413
1.6682595 -0.064792879 0.9988234
1.6687455 -0.064780332 0.99870449
1.6692562 -0.064737447 0.99858868
