# .PCD v0.7 - Point Cloud Data file format
VERSION 0.7
FIELDS x y z
SIZE 4 4 4
TYPE F F F
COUNT 1 1 1
WIDTH 1552
HEIGHT 1
VIEWPOINT 0 0 0 1 0 0 0
POINTS 1552
DATA ascii
1.5673654 -0.048336998 1.0168815
1.5676041 -0.048333999 1.016832
1.563904 -0.048090003 1.016905
1.5641475 -0.048084997 1.0169106
1.5643904 -0.048081003 1.016917
1.5646341 -0.048076503 1.0169234
1.5648706 -0.048074 1.0168475
1.5651131 -0.048069499 1.016845
1.5653656 -0.048063003 1.0169511
1.5656044 -0.048059501 1.0169095
1.5658514 -0.048054002 1.0169561
1.5660915 -0.048051 1.0169234
1.5663285 -0.048047997 1.0168555
1.5665725 -0.048042998 1.016865
1.5668824 -0.048036337 1.0169401
1.5671821 -0.048032001 1.016897
1.567433 -0.048026003 1.0169909
1.56383 -0.047679 1.0169286
1.5640725 -0.047674999 1.01692
1.5643775 -0.047669005 1.0169334
1.56462 -0.047665 1.0169359
1.5649254 -0.047659002 1.016957
1.5651685 -0.047655001 1.01695
1.565408 -0.047651 1.016917
1.5656475 -0.047647499 1.0168746
1.565899 -0.047641501 1.016973
1.5661416 -0.047637001 1.016969
1.5663674 -0.047637001 1.0167795
1.5666189 -0.0476305 1.0168775
1.5668714 -0.047623999 1.0169871
1.567111 -0.047620498 1.0169466
1.5673521 -0.0476165 1.0169251
1.5675945 -0.047611997 1.01692
1.5638759 -0.047398999 1.0167985
1.564182 -0.047393002 1.016819
1.5643694 -0.047389001 1.0168779
1.5646141 -0.047384001 1.0168929
1.5648615 -0.047379002 1.0169415
1.5651059 -0.047374003 1.0169566
1.565344 -0.047371 1.016906
1.565587 -0.047366999 1.0169055
1.565836 -0.047361001 1.0169755
1.566079 -0.047357 1.0169775
1.5663713 -0.047353666 1.0168509
1.5666785 -0.047347501 1.0168929
1.5669215 -0.0473435 1.0168924
1.5671051 -0.047339998 1.016902
1.5674105 -0.047334 1.016924
1.567592 -0.047331002 1.016917
1.5639155 -0.047155999 1.0169284
1.5641584 -0.047150999 1.0169306
1.564332 -0.047150001 1.016831
1.564697 -0.047143999 1.016837
1.5648811 -0.047140002 1.01686
1.5651319 -0.047133997 1.0169489
1.565366 -0.047131501 1.016854
1.565559 -0.047125999 1.016966
1.5658575 -0.047122002 1.0169134
1.5660961 -0.0471185 1.016862
1.56634 -0.047114 1.0168815
1.5665846 -0.047109 1.0168974
1.566884 -0.047104668 1.0168487
1.5671835 -0.047100499 1.016796
1.567436 -0.047094002 1.016909
1.56762 -0.047090001 1.01693
1.5636015 -0.046797 1.0169311
1.563836 -0.046793997 1.0168381
1.5640786 -0.04679 1.016842
1.564326 -0.046784498 1.0168879
1.5646261 -0.046780001 1.0168511
1.564871 -0.046774998 1.016867
1.565001 -0.046771001 1.01696
1.5654266 -0.046764001 1.0169655
1.5656619 -0.046760999 1.0168885
1.5659144 -0.046755001 1.016994
1.5661525 -0.046751499 1.0169361
1.5663915 -0.046747997 1.016892
1.566687 -0.046744999 1.016796
1.566879 -0.046738997 1.0169101
1.5671215 -0.046735 1.0169125
1.567304 -0.046732001 1.016914
1.5676086 -0.046726003 1.0169215
1.5638311 -0.046419002 1.016818
1.5640736 -0.046414003 1.0168205
1.564744 -0.046402 1.01684
1.5648741 -0.046397999 1.01694
1.565174 -0.046393499 1.0168955
1.5654171 -0.046388999 1.0168951
1.5656645 -0.046383999 1.016948
1.5658951 -0.046381999 1.0168076
1.5661376 -0.046378002 1.016806
1.5663869 -0.046372 1.016878
1.566579 -0.046367001 1.016986
1.5668781 -0.046362501 1.016935
1.567121 -0.046358 1.0169361
1.5636394 -0.046043999 1.0169179
1.5638826 -0.046039999 1.016914
1.5641205 -0.046037 1.0168675
1.5643605 -0.046033002 1.0168335
1.564605 -0.046028502 1.016853
1.564847 -0.046024002 1.01684
1.5650945 -0.046018999 1.01689
1.565341 -0.046014 1.0169255
1.5655875 -0.046008997 1.016969
1.5658259 -0.046005502 1.0169225
1.566004 -0.046002999 1.016878
1.566134 -0.045999002 1.016969
1.566256 -0.045997001 1.016978
1.566735 -0.045990001 1.016903
1.5669219 -0.045985498 1.0169539
1.5671645 -0.045981001 1.0169506
1.567404 -0.045977503 1.016915
1.5678816 -0.045970999 1.0168135
1.5638261 -0.045641501 1.0168099
1.5640775 -0.045635499 1.0168965
1.5643196 -0.045630999 1.0168885
1.5646234 -0.045626 1.0168947
1.564919 -0.045621999 1.0168095
1.565111 -0.045616999 1.016908
1.5654149 -0.045611501 1.016916
1.5656505 -0.045608498 1.0168365
1.5658979 -0.045603 1.0168869
1.566084 -0.045598999 1.016932
1.566813 -0.045586001 1.01694
1.567605 -0.045571499 1.0169644
1.563992 -0.045281 1.01677
1.5641835 -0.045275502 1.0168641
1.5644264 -0.045271002 1.0168655
1.5646645 -0.045267999 1.016818
1.565395 -0.045254 1.0168395
1.565574 -0.045251999 1.016799
1.564662 -0.045083001 1.016796
1.565392 -0.045069002 1.016818
1.565618 -0.045126669 1.0168457
1.5658505 -0.045153499 1.016844
1.5660983 -0.045148 1.0169005
1.566303 -0.045239002 1.016812
1.5666955 -0.045139499 1.0167866
1.5669146 -0.045042001 1.016863
1.5671563 -0.045099668 1.0168548
1.567371 -0.045125999 1.0168772
1.5676171 -0.045121003 1.0169158
1.567818 -0.045026999 1.0167871
1.5646549 -0.044736002 1.016783
1.5647759 -0.044734001 1.016785
1.5655684 -0.044719502 1.016814
1.5658746 -0.044713333 1.0168433
1.56648 -0.044702999 1.016821
1.566731 -0.044697002 1.016914
1.5669045 -0.044696003 1.016824
1.5670871 -0.044691999 1.0168279
1.5673926 -0.044687003 1.0168436
1.5676351 -0.044682 1.0168445
1.567879 -0.044678003 1.0168545
1.563924 -0.044333 1.0167609
1.5641065 -0.044329002 1.0167615
1.5643506 -0.044325002 1.0167725
1.564532 -0.044321999 1.016766
1.564837 -0.044316001 1.0167785
1.565078 -0.044312 1.0167609
1.5653219 -0.044307999 1.0167739
1.5655656 -0.044303 1.0167785
1.566175 -0.044292003 1.016803
1.566422 -0.044286501 1.0168569
1.566601 -0.044284001 1.016812
1.56733 -0.044271 1.016819
1.567574 -0.044266999 1.016834
1.567818 -0.044261999 1.016855
1.568053 -0.044259999 1.0167511
1.5639246 -0.044141002 1.016786
1.564173 -0.044135001 1.0168464
1.5645911 -0.044128999 1.016777
1.5651391 -0.044119 1.0167899
1.56593 -0.044105001 1.016807
1.5661125 -0.044101998 1.016808
1.566897 -0.044089001 1.016753
1.567083 -0.044085 1.0168004
1.567261 -0.044082999 1.0167511
1.5676875 -0.044074997 1.0167661
1.564121 -0.043846 1.01676
1.56473 -0.043834999 1.016773
1.565461 -0.043822002 1.0168051
1.5656531 -0.043816499 1.0169079
1.565896 -0.043811999 1.0169134
1.566079 -0.043809 1.016919
1.5663819 -0.043802999 1.0169215
1.5666165 -0.043801002 1.0168276
1.56686 -0.043796502 1.016832
1.567104 -0.043792002 1.0168481
1.567347 -0.043788001 1.0168425
1.5675905 -0.043783501 1.016855
1.5678351 -0.043779001 1.016875
1.56415 -0.043468997 1.016793
1.564393 -0.043465003 1.0167949
1.564574 -0.043462001 1.0167789
1.5653675 -0.043447003 1.016826
1.5656116 -0.043442003 1.01684
1.566097 -0.043434002 1.0168355
1.566278 -0.043430999 1.016826
1.566644 -0.043423999 1.0168459
1.5668185 -0.043422997 1.0167575
1.5671275 -0.043416001 1.016817
1.5674264 -0.043412 1.0167639
1.5676739 -0.043406002 1.016821
1.5648484 -0.043043002 1.016854
1.5650916 -0.043038003 1.0168545
1.5653365 -0.043034002 1.0168719
1.5655775 -0.043030001 1.0168566
1.5658209 -0.043025002 1.0168585
1.5661187 -0.043021332 1.016796
1.5664196 -0.043016002 1.0167675
1.5666715 -0.04301 1.0168695
1.5669165 -0.043004997 1.0168946
1.567099 -0.043001998 1.016894
1.56722 -0.043000001 1.016888
1.5673985 -0.042997502 1.0168555
1.567646 -0.042992003 1.0169045
1.563872 -0.042639002 1.016793
1.564055 -0.042636 1.016801
1.564907 -0.042619999 1.0168231
1.5650954 -0.042616002 1.0168891
1.5653341 -0.0426125 1.0168436
1.5658209 -0.042603999 1.0168566
1.5661247 -0.042598002 1.0168588
1.566424 -0.042594001 1.0168066
1.566663 -0.042590499 1.016765
1.566915 -0.042584002 1.0168691
1.5671589 -0.042579502 1.0168855
1.5674059 -0.042574 1.0169375
1.5676495 -0.042569999 1.0169405
1.5638809 -0.042236 1.016782
1.5643179 -0.042226002 1.016904
1.564623 -0.04222 1.016924
1.5648589 -0.042217001 1.0168509
1.565343 -0.042208999 1.0168304
1.565587 -0.042204499 1.0168415
1.5658355 -0.042199001 1.0169046
1.5660729 -0.042195998 1.0168509
1.566376 -0.042190999 1.016842
1.56692 -0.042181499 1.016817
1.567168 -0.042176001 1.016874
1.5674115 -0.042171501 1.0168835
1.5676644 -0.042165 1.016999
1.5638355 -0.041910999 1.016856
1.564378 -0.041901998 1.016812
1.56541 -0.041884001 1.0168085
1.5656576 -0.041878998 1.0168624
1.5659056 -0.041873001 1.016917
1.5661485 -0.041869 1.0169195
1.5663835 -0.041866001 1.016832
1.5666265 -0.041862 1.0168345
1.5668709 -0.041857 1.0168505
1.5671151 -0.041852999 1.0168595
1.5673575 -0.041848499 1.0168591
1.5676119 -0.0418415 1.0169954
1.564007 -0.041728001 1.01679
1.5643764 -0.04172067 1.016844
1.564617 -0.041717 1.01682
1.564925 -0.04171 1.0168725
1.5651695 -0.041706 1.0168841
1.565408 -0.041702501 1.0168376
1.5656559 -0.041696999 1.0168941
1.5658946 -0.041694 1.016848
1.5661294 -0.041690998 1.016758
1.5663815 -0.041685 1.016858
1.5666256 -0.041680001 1.016871
1.5668604 -0.041677997 1.0167825
1.567104 -0.0416735 1.0167855
1.5673515 -0.041667998 1.0168445
1.5675945 -0.041664001 1.0168464
1.5639451 -0.041425999 1.016803
1.5641285 -0.041422501 1.016824
1.564373 -0.041418001 1.0168364
1.5646155 -0.041414 1.016834
1.5648575 -0.0414095 1.016825
1.5651115 -0.041403003 1.016945
1.5653505 -0.041399501 1.0169024
1.5655905 -0.041395999 1.0168719
1.5658331 -0.041391499 1.0168695
1.566081 -0.041386001 1.016927
1.5663245 -0.041382 1.016932
1.5666237 -0.041377336 1.0168841
1.566925 -0.0413725 1.0168555
1.567173 -0.041367002 1.0169139
1.5674191 -0.041361999 1.0169585
1.567659 -0.041358501 1.01692
1.564481 -0.041014999 1.016839
1.564669 -0.041010998 1.0168979
1.5649135 -0.041005999 1.016917
1.565153 -0.041003 1.0168805
1.5653944 -0.040999003 1.0168645
1.5656276 -0.040996 1.0167584
1.565881 -0.040990002 1.0168695
1.5663655 -0.040981501 1.0168591
1.566552 -0.040977001 1.016911
1.566919 -0.040970001 1.0169359
1.5673389 -0.040964 1.016881
1.5675805 -0.040959999 1.016868
1.5636425 -0.040605001 1.016938
1.563946 -0.040599 1.016935
1.5640579 -0.040599 1.016839
1.564361 -0.040593997 1.016832
1.5646091 -0.040588498 1.016892
1.5648584 -0.040583 1.0169585
1.5651009 -0.040578499 1.0169615
1.565341 -0.040575001 1.016922
1.5655755 -0.040572502 1.016831
1.5658185 -0.040568002 1.0168309
1.5660615 -0.040564001 1.0168359
1.5664215 -0.040558502 1.0167905
1.566615 -0.040552001 1.01692
1.567223 -0.040541999 1.0169261
1.5674045 -0.040538497 1.0169179
1.5676475 -0.040533997 1.0169184
1.563918 -0.040292002 1.0169535
1.56416 -0.040288001 1.0169445
1.5643985 -0.0402845 1.0168965
1.564633 -0.040282 1.0168116
1.5648875 -0.040275 1.0169305
1.5651355 -0.040269502 1.0169899
1.565377 -0.040266 1.0169765
1.565611 -0.040262997 1.01688
1.5658596 -0.040257998 1.0169384
1.566046 -0.040252998 1.0169899
1.5640755 -0.040065501 1.0168165
1.5643234 -0.040059999 1.0168746
1.5646245 -0.040055666 1.0168407
1.564862 -0.040052 1.016788
1.565001 -0.040045999 1.016978
1.5656636 -0.040036 1.0169175
1.5659065 -0.040031001 1.016922
1.5661449 -0.040028498 1.016866
1.5663913 -0.040099338 1.0168647
1.5665934 -0.040095668 1.0168613
1.5668795 -0.040013999 1.0169361
1.5670985 -0.040123001 1.0169441
1.567372 -0.040140603 1.0169384
1.5676811 -0.040225498 1.0169406
1.563856 -0.039662 1.016953
1.5640814 -0.039662 1.0167725
1.5643234 -0.0396575 1.0167611
1.564573 -0.039652001 1.016826
1.5648251 -0.0396455 1.0169325
1.5651257 -0.039641004 1.0168984
1.5654299 -0.039635003 1.0169085
1.5656724 -0.039631002 1.0169051
1.5659115 -0.039627999 1.0168619
1.566089 -0.039625999 1.0168051
1.5663935 -0.039619997 1.016814
1.5666449 -0.039613999 1.016911
1.566819 -0.039611999 1.016821
1.567073 -0.039606001 1.016947
1.567428 -0.039600998 1.016845
1.56761 -0.039598003 1.01684
1.5678589 -0.039592501 1.0169085
1.563916 -0.0393245 1.0168755
1.5641539 -0.039320998 1.0168295
1.564394 -0.0393175 1.0167921
1.5646365 -0.039313503 1.0167905
1.5648201 -0.039310001 1.0168101
1.565194 -0.039301001 1.016916
1.5653706 -0.039299 1.0168515
1.5656149 -0.039294999 1.0168675
1.565802 -0.03929 1.016922
1.566169 -0.039283 1.016948
1.5663425 -0.039282002 1.0168514
1.5665901 -0.039277002 1.016903
1.5668371 -0.0392715 1.0169545
1.5670815 -0.039267 1.016969
1.5673261 -0.039261997 1.0169915
1.563663 -0.038951002 1.0169295
1.563902 -0.038947999 1.0168896
1.5641446 -0.038943999 1.0168865
1.564389 -0.038938999 1.0169065
1.5646324 -0.038934998 1.016907
1.564865 -0.038933001 1.0167944
1.5651095 -0.038928002 1.016816
1.5653629 -0.038920999 1.0169286
1.5660925 -0.038907997 1.0169395
1.566335 -0.038904 1.0169411
1.5665796 -0.038898997 1.016956
1.5668221 -0.038895 1.016952
1.567066 -0.038889997 1.0169661
1.5674324 -0.038883001 1.0169926
1.5676744 -0.038879 1.0169826
1.56791 -0.038877003 1.0168924
1.564124 -0.038703002 1.0168885
1.5643771 -0.038696997 1.016997
1.5646191 -0.038693003 1.0169895
1.5648534 -0.038690001 1.0168965
1.5650985 -0.038685501 1.016917
1.565403 -0.038679998 1.016927
1.5655844 -0.038677 1.0169275
1.56589 -0.038671002 1.016945
1.566499 -0.038660001 1.0169719
1.5666209 -0.038658001 1.016968
1.567227 -0.038647 1.0169671
1.56741 -0.038644001 1.01697
1.567654 -0.038639002 1.016987
1.564165 -0.038408 1.0168005
1.564419 -0.038401 1.0169195
1.564661 -0.038396999 1.0169151
1.5649005 -0.038393497 1.01687
1.5651445 -0.038389001 1.0168869
1.565455 -0.038382001 1.016965
1.565697 -0.038378 1.01695
1.5658796 -0.038374998 1.0169535
1.5661216 -0.038370997 1.0169425
1.5663655 -0.038365997 1.0169599
1.5666089 -0.038362 1.0169644
1.567095 -0.038353 1.016968
1.5673375 -0.038349003 1.0169716
1.5675831 -0.038344003 1.016999
1.563835 -0.038031001 1.016843
1.5640841 -0.038025998 1.016902
1.564328 -0.038020998 1.016916
1.565719 -0.037997998 1.016849
1.565901 -0.0379945 1.0168531
1.566149 -0.037988998 1.0169085
1.5663974 -0.037983499 1.01697
1.5666411 -0.037978999 1.016979
1.5668845 -0.037974998 1.0169866
1.5671265 -0.037970997 1.0169804
1.5673699 -0.037965998 1.016988
1.5635771 -0.037652001 1.016995
1.5643605 -0.037639 1.016933
1.5646031 -0.037634499 1.0169361
1.564847 -0.037629999 1.0169435
1.565091 -0.037625499 1.016957
1.5658799 -0.037611999 1.0169539
1.566117 -0.037608668 1.0168853
1.5664229 -0.037602998 1.0169165
1.5666715 -0.037597001 1.0169785
1.56721 -0.037588999 1.016892
1.567341 -0.037585001 1.016997
1.563864 -0.037349999 1.01692
1.564353 -0.037340999 1.016952
1.5646555 -0.037335001 1.0169489
1.5648899 -0.037332997 1.0168545
1.565141 -0.037326999 1.0169435
1.565447 -0.037321001 1.016968
1.5656245 -0.037318498 1.016919
1.5658685 -0.037313998 1.01693
1.5661111 -0.037310001 1.016928
1.5663536 -0.037306 1.016924
1.5639005 -0.0371705 1.016906
1.5648756 -0.037152998 1.0169405
1.5656049 -0.037139997 1.0169516
1.5658475 -0.0371355 1.0169475
1.566083 -0.037133001 1.0168655
1.5663295 -0.037128001 1.0169075
1.5665785 -0.037122503 1.0169744
1.566762 -0.037119001 1.016994
1.567248 -0.037110001 1.016995
1.5674219 -0.037109002 1.0169015
1.56388 -0.036789998 1.0168645
1.564068 -0.036786001 1.016927
1.564799 -0.036772002 1.016955
1.5653455 -0.036762498 1.0169556
1.56559 -0.036757998 1.0169719
1.5658326 -0.036753997 1.0169675
1.56607 -0.036750998 1.0169085
1.5663185 -0.036744997 1.0169721
1.564115 -0.036339 1.016785
1.5643594 -0.0363345 1.016803
1.564606 -0.036329001 1.0168469
1.5648451 -0.036325999 1.0167971
1.5650926 -0.036320999 1.0168545
1.5653425 -0.036315002 1.016932
1.565637 -0.036311001 1.016835
1.5658276 -0.0363065 1.0169245
1.5661297 -0.036301333 1.016908
1.566433 -0.036295999 1.0169085
1.56662 -0.036292002 1.016966
1.566983 -0.036286 1.016945
1.567161 -0.0362835 1.0169001
1.567409 -0.036278002 1.0169605
1.567649 -0.0362745 1.0169295
1.5643575 -0.035912 1.0167706
1.564608 -0.035906002 1.0168525
1.564852 -0.035901003 1.01687
1.5650945 -0.035897002 1.016866
1.5653385 -0.035892501 1.0168805
1.565587 -0.035886999 1.0169389
1.565825 -0.035884 1.0168869
1.566069 -0.035879001 1.0169005
1.5663698 -0.035874669 1.0168631
1.566617 -0.035868999 1.0169179
1.5669205 -0.035864003 1.016924
1.5671589 -0.035860501 1.016873
1.5674064 -0.035855003 1.0169265
1.5676451 -0.035852 1.0168779
1.567889 -0.035847001 1.016892
1.5638723 -0.035563998 1.0169134
1.5641716 -0.035559498 1.0168655
1.564415 -0.035554998 1.0168725
1.564649 -0.035553001 1.016777
1.564901 -0.0355465 1.0168805
1.5654581 -0.035533998 1.017
1.565683 -0.035533998 1.016802
1.5658129 -0.035530001 1.0168951
1.566543 -0.035517 1.0169131
1.567153 -0.035505001 1.016945
1.5673305 -0.035503 1.016897
1.5676301 -0.035498999 1.016845
1.5678771 -0.035493337 1.0168957
1.5640726 -0.035088003 1.016849
1.5643762 -0.035082001 1.0168567
1.564676 -0.035078 1.016817
1.564923 -0.035072498 1.0168605
1.565238 -0.035064999 1.016979
1.5654106 -0.035063997 1.0168765
1.5656495 -0.03506 1.0168315
1.5658884 -0.035057001 1.0167905
1.5661316 -0.035052501 1.0167905
1.5663745 -0.035048001 1.0167911
1.566558 -0.035045002 1.016806
1.5668614 -0.035039 1.0168105
1.5671046 -0.035034999 1.0168154
1.567287 -0.035032 1.016819
1.5675919 -0.035025999 1.016832
1.567845 -0.035019502 1.0169535
1.5641739 -0.034680001 1.016807
1.564417 -0.034675002 1.0168085
1.5646696 -0.034669001 1.016917
1.5649126 -0.034664501 1.01692
1.5651565 -0.03466 1.0169311
1.565405 -0.034654498 1.0169904
1.5656395 -0.034652002 1.016902
1.5658824 -0.034647502 1.0169065
1.5661335 -0.034641501 1.0169975
1.566359 -0.034640998 1.0168021
1.56655 -0.034635998 1.016907
1.5670946 -0.034626998 1.01688
1.567403 -0.034619998 1.016937
1.567577 -0.034619 1.0168486
1.5678205 -0.034613997 1.0168545
1.564056 -0.034325998 1.0167921
1.56504 -0.034306999 1.01693
1.565405 -0.034299999 1.016938
1.565639 -0.034297999 1.016838
1.5663776 -0.034282669 1.0169547
1.566673 -0.034279 1.0168614
1.5669169 -0.034275003 1.0168691
1.5671685 -0.034267999 1.016974
1.5675941 -0.034260999 1.016982
1.5641124 -0.034193002 1.016829
1.5643511 -0.034189001 1.016785
1.564533 -0.034185998 1.016783
1.564908 -0.034178 1.016896
1.5658209 -0.034161001 1.016922
1.5664296 -0.034149997 1.0169425
1.566668 -0.034147002 1.016891
1.566916 -0.034140997 1.016955
1.567881 -0.034125999 1.01688
1.563886 -0.033806998 1.016862
1.5641308 -0.033802669 1.0168777
1.56449 -0.033797 1.016829
1.564678 -0.033792999 1.0168874
1.564855 -0.033790998 1.016831
1.565707 -0.033775002 1.0168591
1.5658934 -0.033771001 1.016901
1.566123 -0.033770002 1.0167561
1.5663669 -0.033765502 1.016763
1.5666239 -0.033758 1.0169239
1.566812 -0.033753999 1.016992
1.567054 -0.033748999 1.016986
1.5643215 -0.033382498 1.016835
1.565111 -0.033369001 1.016836
1.5662071 -0.033349 1.01687
1.5664589 -0.033342 1.016971
1.5644355 -0.033013001 1.016789
1.5646839 -0.033007499 1.0168481
1.565106 -0.033000998 1.016817
1.565348 -0.032995999 1.016807
1.5661445 -0.032981001 1.0168929
1.5663846 -0.032977 1.016854
1.566576 -0.032972001 1.016959
1.567174 -0.032963 1.016855
1.567356 -0.032959998 1.0168605
1.5676045 -0.032954499 1.016921
1.567845 -0.032950997 1.016894
1.5639269 -0.032636002 1.016928
1.564165 -0.032632999 1.0168785
1.5644081 -0.032628998 1.0168785
1.564646 -0.032624997 1.016827
1.5648944 -0.032619998 1.016884
1.565143 -0.032614 1.0169475
1.56563 -0.032605499 1.0169635
1.5658724 -0.032600999 1.016964
1.56642 -0.032591 1.016975
1.5666025 -0.032587998 1.016978
1.566846 -0.032583497 1.016991
1.5670846 -0.032579999 1.0169405
1.5673234 -0.032577001 1.0168924
1.567628 -0.032570999 1.016905
1.567873 -0.032566 1.016927
1.5638931 -0.032327 1.016953
1.5641274 -0.032324001 1.016863
1.5643704 -0.03232 1.016863
1.564618 -0.032315001 1.0169135
1.5648655 -0.032309502 1.016966
1.5651014 -0.032306999 1.016893
1.565339 -0.032304 1.0168326
1.565587 -0.032298498 1.0168895
1.5658355 -0.032292999 1.0169535
1.566074 -0.032289498 1.0169015
1.566317 -0.032284997 1.0169055
1.567229 -0.032269001 1.016925
1.567412 -0.032265 1.0169289
1.567595 -0.032262001 1.016948
1.563727 -0.032109 1.016947
1.5639045 -0.0321065 1.0169005
1.564153 -0.032100998 1.0169566
1.564391 -0.032097999 1.0169079
1.5645781 -0.032094002 1.016957
1.565177 -0.032085001 1.0168689
1.5653596 -0.032081001 1.0168771
1.565613 -0.032075003 1.016991
1.565796 -0.032071002 1.017
1.566385 -0.032065 1.0168051
1.566577 -0.032059498 1.0169145
1.566882 -0.032054 1.01693
1.5674911 -0.032042999 1.0169491
1.5638515 -0.031761497 1.016973
1.56409 -0.031757999 1.0169261
1.5643235 -0.031755999 1.0168281
1.56451 -0.031752001 1.01688
1.5646321 -0.031750001 1.016878
1.564824 -0.031744003 1.0169915
1.565007 -0.031741001 1.0169981
1.565971 -0.031725001 1.0169131
1.566083 -0.031725001 1.016807
1.5638505 -0.031346999 1.016963
1.5640945 -0.031342998 1.0169775
1.564332 -0.031339999 1.016914
1.5645754 -0.031335 1.0169215
1.564824 -0.031329997 1.016983
1.5650671 -0.031324998 1.0169899
1.56525 -0.031321999 1.016993
1.5657181 -0.031316999 1.016798
1.5659089 -0.031312 1.016902
1.566153 -0.0313075 1.0169145
1.5663955 -0.031303003 1.0169115
1.5666395 -0.031299002 1.0169201
1.566884 -0.031294003 1.0169405
1.564276 -0.030936999 1.0169621
1.564636 -0.030931 1.0169131
1.564762 -0.030928001 1.016966
1.5651259 -0.030921999 1.016965
1.565735 -0.03091 1.016989
1.565908 -0.030909 1.0168865
1.566396 -0.0309 1.0169095
1.5666389 -0.030896001 1.0169106
1.5668831 -0.030890999 1.016924
1.567795 -0.030874999 1.016943
1.563902 -0.030740499 1.016875
1.5641356 -0.030738 1.016775
1.5643926 -0.030731 1.016928
1.564692 -0.030727001 1.016878
1.5648655 -0.030725501 1.016783
1.5650671 -0.030718001 1.016992
1.5653634 -0.030714 1.0169179
1.5655999 -0.030711001 1.0168514
1.5658441 -0.030707 1.01686
1.5660834 -0.030703001 1.0168235
1.5663309 -0.030698001 1.016874
1.5665179 -0.030694 1.0169261
1.567736 -0.030671 1.016978
1.5679145 -0.030669 1.0169311
1.563899 -0.030440999 1.0169899
1.5640819 -0.030438 1.0169959
1.5643151 -0.030435499 1.0168946
1.565838 -0.030408001 1.016946
1.5661399 -0.030402999 1.016934
1.566324 -0.030399 1.016956
1.567784 -0.030373 1.016983
1.56399 -0.030061999 1.016909
1.564163 -0.030060999 1.016806
1.564355 -0.030056 1.016912
1.565928 -0.030029001 1.016847
1.566121 -0.030024 1.0169646
1.5668504 -0.030011 1.0169845
1.5670331 -0.030006999 1.016988
1.567276 -0.030003 1.016991
1.56434 -0.029677 1.0169311
1.5653729 -0.029658999 1.0169415
1.5656745 -0.029654 1.0169125
1.566347 -0.029641001 1.0169671
1.5638316 -0.029376 1.016957
1.5641251 -0.0293725 1.0168509
1.5649221 -0.029356999 1.0169325
1.5656559 -0.029343 1.0169921
1.566195 -0.029335 1.016909
1.5666206 -0.029327 1.0169165
1.566794 -0.029325999 1.016819
1.5671035 -0.029319501 1.01688
1.5641196 -0.0291605 1.016777
1.5643775 -0.029153001 1.016937
1.564611 -0.029151 1.0168431
1.564851 -0.029146999 1.0168121
1.565338 -0.029138001 1.0168295
1.565582 -0.029134 1.0168395
1.565886 -0.029128 1.01685
1.566129 -0.029123999 1.016844
1.5663733 -0.029119333 1.016863
1.5666766 -0.029114 1.0168564
1.566915 -0.029111 1.0168135
1.5671675 -0.029104 1.016925
1.567598 -0.029096 1.016994
1.5678976 -0.029091001 1.0169439
1.5681324 -0.029089 1.0168509
1.5638471 -0.028367 1.0169204
1.5640805 -0.0283645 1.016826
1.564742 -0.028354 1.016752
1.565732 -0.028333001 1.016966
1.5659006 -0.028333001 1.0168099
1.566209 -0.028325999 1.016871
1.566393 -0.028323 1.016889
1.5666356 -0.0283185 1.016885
1.5668786 -0.028314 1.016885
1.56767 -0.0283 1.016914
1.567791 -0.028298 1.01691
1.5639155 -0.028006 1.0169145
1.5641021 -0.028001999 1.016968
1.5642076 -0.027885001 1.0169261
1.5643849 -0.027882751 1.0168728
1.5645649 -0.027762 1.016982
1.5648561 -0.027759001 1.0168445
1.5651143 -0.02786975 1.0168815
1.5653 -0.027984001 1.016786
1.565604 -0.027979 1.0167954
1.5658536 -0.027973 1.0168669
1.566161 -0.027967 1.016914
1.566395 -0.027964 1.016816
1.566891 -0.027953001 1.016939
1.5670691 -0.027951 1.016889
1.5673778 -0.027945001 1.0169463
1.5676775 -0.027939999 1.0169024
1.5679076 -0.027938999 1.016757
1.5681551 -0.027933501 1.0168095
1.565407 -0.027749 1.016896
1.5655811 -0.027747 1.0168099
1.5658259 -0.027742501 1.016834
1.5660765 -0.0277365 1.0169184
1.566381 -0.027731 1.0169311
1.5665646 -0.027727 1.0169456
1.5669889 -0.027720001 1.016946
1.5671716 -0.027717 1.016945
1.5674155 -0.027712001 1.016958
1.5676584 -0.027708 1.0169635
1.5678976 -0.027705001 1.0169151
1.568128 -0.027703 1.0167716
1.5641255 -0.027494 1.0168575
1.5643646 -0.027489999 1.0168195
1.5646091 -0.027486 1.0168355
1.564805 -0.027479 1.0169851
1.56503 -0.027479 1.016796
1.5653435 -0.027472001 1.0168979
1.5655861 -0.027466999 1.016899
1.56583 -0.027463 1.0169145
1.566013 -0.027458999 1.016922
1.566378 -0.027453002 1.01693
1.5666775 -0.027448501 1.0168841
1.566925 -0.027442999 1.0169425
1.567229 -0.027438 1.016946
1.567958 -0.027425 1.016955
1.5639191 -0.027122 1.0169625
1.5643965 -0.027115 1.016876
1.5648925 -0.027104 1.0169826
1.5658569 -0.027088 1.016915
1.5666471 -0.027074 1.0169261
1.566831 -0.027070999 1.0169435
1.5671257 -0.027067002 1.0168433
1.5674295 -0.027061999 1.01685
1.56762 -0.027057 1.01695
1.567976 -0.027052 1.016845
1.5640996 -0.026728999 1.016989
1.5643334 -0.026726499 1.0168929
1.5645776 -0.026721999 1.0169045
1.5650585 -0.026714999 1.0168509
1.5656664 -0.026704 1.0168641
1.565906 -0.026699999 1.01683
1.5661581 -0.026694 1.0169295
1.566341 -0.026690001 1.016947
1.566586 -0.026686 1.0169621
1.567129 -0.026676999 1.0169275
1.567307 -0.026675001 1.0168819
1.56768 -0.026666 1.016981
1.567862 -0.026663 1.0169845
1.564337 -0.026314 1.01684
1.564644 -0.026308 1.016881
1.564767 -0.026306 1.016901
1.567201 -0.026262 1.01696
1.5673825 -0.0262585 1.0169615
1.567626 -0.026254 1.0169699
1.567801 -0.026252 1.016889
1.56793 -0.026249001 1.016969
1.568104 -0.026247 1.0168846
1.563991 -0.025919 1.0168639
1.5641735 -0.0259155 1.0168686
1.5646605 -0.025907001 1.0168805
1.5648479 -0.025901999 1.016941
1.565091 -0.025898 1.016935
1.565695 -0.025888 1.016909
1.565932 -0.025885001 1.016845
1.566419 -0.025876001 1.016857
1.566612 -0.025870999 1.0169785
1.5668554 -0.025866 1.0169885
1.5670991 -0.025862001 1.0169945
1.567273 -0.02586 1.016909
1.564407 -0.02572 1.016885
1.566177 -0.025687 1.016992
1.566412 -0.025684001 1.016905
1.566594 -0.025681 1.016906
1.567021 -0.025673 1.016921
1.567263 -0.025668999 1.0169131
1.5643771 -0.025397999 1.0168746
1.564621 -0.025394 1.016885
1.565346 -0.025382001 1.0168445
1.5663919 -0.025361 1.016999
1.566635 -0.025356 1.0169981
1.566877 -0.025351999 1.016991
1.567355 -0.025345 1.016909
1.568198 -0.025332 1.016826
1.564492 -0.025012 1.0168999
1.564617 -0.025009001 1.016947
1.5650949 -0.025002001 1.016855
1.565217 -0.025 1.016865
1.5654039 -0.0249955 1.01692
1.5656465 -0.024991 1.0169206
1.5658261 -0.024989 1.016885
1.5640991 -0.024636999 1.0168935
1.564641 -0.024628 1.016842
1.564764 -0.024626 1.016862
1.5654354 -0.024613 1.0168985
1.5656769 -0.024608999 1.0168796
1.565925 -0.024604 1.01694
1.5661681 -0.024599001 1.0169475
1.5655916 -0.0243295 1.0169849
1.565774 -0.024326 1.0169899
1.566983 -0.024305999 1.0169311
1.564245 -0.024152 1.016966
1.564409 -0.024153 1.016768
1.564672 -0.0241445 1.0169835
1.563862 -0.023776 1.016959
1.564226 -0.023769001 1.01696
1.564399 -0.023768 1.016863
1.564592 -0.023762999 1.016974
1.565079 -0.023754001 1.016989
1.565322 -0.02375 1.016993
1.567073 -0.023721 1.0168825
1.56726 -0.023716001 1.0169441
1.56792 -0.023706499 1.016852
1.568161 -0.023702499 1.016832
1.563972 -0.023301 1.016971
1.5653629 -0.023277 1.016911
1.5660321 -0.023265 1.0169311
1.5641379 -0.022934999 1.0168355
1.5643816 -0.022930499 1.016839
1.5646341 -0.022924 1.016943
1.564798 -0.022925001 1.0167511
1.565172 -0.022916 1.01685
1.5653551 -0.022913 1.0168641
1.5655975 -0.022909001 1.016862
1.565902 -0.022902999 1.016871
1.5660889 -0.022899 1.0169295
1.566276 -0.022894001 1.0169899
1.566641 -0.022887999 1.016999
1.56785 -0.022867 1.01694
1.56396 -0.022748999 1.016923
1.5643845 -0.022741999 1.0169239
1.564558 -0.022740001 1.0168329
1.564865 -0.022734001 1.0168695
1.5651095 -0.02273 1.0168885
1.5653479 -0.022725999 1.0168405
1.5655916 -0.022722 1.016849
1.565835 -0.0227175 1.016856
1.566026 -0.022712 1.016956
1.566574 -0.022702001 1.0169799
1.5668726 -0.022698 1.0169227
1.567178 -0.0226925 1.0169425
1.567364 -0.022688 1.016993
1.567664 -0.022684 1.0169489
1.5679026 -0.022681 1.016897
1.5681405 -0.0226775 1.016842
1.564011 -0.022453001 1.016934
1.564496 -0.022445001 1.016927
1.5646784 -0.022441 1.0169334
1.564851 -0.02244 1.016834
1.56516 -0.022434 1.01689
1.5654085 -0.022428 1.0169555
1.565956 -0.022418 1.016965
1.566139 -0.022415001 1.0169785
1.5663785 -0.022411499 1.016941
1.5666165 -0.022408001 1.0168865
1.566801 -0.022405 1.016912
1.5671639 -0.022398001 1.016907
1.567347 -0.022395 1.0169134
1.567894 -0.022384999 1.016919
1.5680766 -0.022382 1.0169284
1.564765 -0.022027999 1.016842
1.5661139 -0.022002 1.016999
1.5664079 -0.021999 1.01689
1.5666515 -0.021994501 1.016899
1.5648215 -0.0216305 1.016811
1.565016 -0.021624999 1.016948
1.5653811 -0.021617999 1.016959
1.5656214 -0.021614667 1.0169314
1.56744 -0.021583 1.016907
1.5676215 -0.021579999 1.0168999
1.5678051 -0.021576 1.016914
1.564433 -0.0213705 1.016799
1.564688 -0.021363501 1.0169265
1.5649275 -0.021360001 1.016891
1.565663 -0.0213455 1.0169716
1.565906 -0.021341 1.0169765
1.5661316 -0.021341 1.0167805
1.5663819 -0.021335 1.0168725
1.5665751 -0.021329001 1.016988
1.5679049 -0.021307001 1.016932
1.568138 -0.021305 1.016821
1.5641479 -0.02117 1.016921
1.5643866 -0.021166001 1.0168791
1.564579 -0.021160999 1.016989
1.565065 -0.021152001 1.016999
1.566517 -0.021128001 1.016948
1.5679145 -0.021103 1.0169675
1.564213 -0.020754 1.016966
1.564326 -0.020754 1.016872
1.564456 -0.020749999 1.016971
1.5646909 -0.020747 1.0168869
1.564882 -0.020741999 1.016983
1.5651205 -0.020739 1.0169365
1.565294 -0.020737 1.0168459
1.565538 -0.020733001 1.016852
1.565907 -0.020725001 1.016905
1.5643439 -0.020351499 1.016901
1.5645881 -0.020346999 1.0169156
1.5661695 -0.020318501 1.016952
1.5664135 -0.020314001 1.0169644
1.5666521 -0.020310499 1.0169201
1.5668401 -0.020306 1.016984
1.5673259 -0.020297 1.0169899
1.567812 -0.020289 1.016997
1.564285 -0.019995 1.016847
1.564898 -0.019982999 1.016909
1.565993 -0.019963 1.016938
1.566358 -0.019956 1.016947
1.567941 -0.019927001 1.016999
1.564218 -0.019455999 1.016991
1.564321 -0.019458 1.016786
1.565305 -0.019438 1.016925
1.566153 -0.019424001 1.016904
1.566278 -0.019421 1.0169491
1.5668275 -0.019410999 1.0169815
1.567009 -0.019408001 1.016981
1.5654041 -0.019055 1.016909
1.566504 -0.019034 1.016993
1.567232 -0.019021001 1.016992
1.5674015 -0.019021001 1.0168486
1.5676551 -0.019014001 1.0169685
1.566178 -0.018665001 1.016879
1.566301 -0.018663 1.016894
1.565521 -0.017865 1.016999
1.5641594 -0.017701499 1.0169134
1.564346 -0.017697001 1.0169671
1.564708 -0.017690999 1.0169359
1.5649509 -0.017687 1.016943
1.5651325 -0.017684 1.0169375
1.5653775 -0.017679501 1.016961
1.565677 -0.017674999 1.016922
1.565858 -0.017672 1.0169055
1.5661011 -0.0176675 1.0169129
1.56634 -0.017664 1.0168686
1.566584 -0.0176595 1.016885
1.5670151 -0.017650999 1.016957
1.567988 -0.017633 1.0169851
1.5643334 -0.017385501 1.0168705
1.564582 -0.017379999 1.0169361
1.5648265 -0.017375499 1.016955
1.5659165 -0.017356999 1.016925
1.566332 -0.017351 1.01682
1.5666411 -0.017345 1.0168841
1.567193 -0.017333999 1.016958
1.567371 -0.017332001 1.016906
1.5676185 -0.017326001 1.0169675
1.5639369 -0.016997 1.016971
1.564423 -0.016988 1.0169851
1.564541 -0.016987 1.016942
1.564899 -0.016981 1.016883
1.565997 -0.016961001 1.016937
1.566174 -0.016959 1.0168846
1.566412 -0.016956 1.016832
1.5666649 -0.016949 1.0169475
1.56425 -0.016582999 1.016813
1.5644341 -0.016580001 1.0168276
1.564737 -0.016574999 1.016824
1.5649295 -0.016569 1.0169356
1.565172 -0.016565001 1.016933
1.5653549 -0.016562 1.016939
1.5656605 -0.016556 1.016964
1.566146 -0.016547 1.0169666
1.5663791 -0.016545 1.0168564
1.566628 -0.016539499 1.016928
1.5671184 -0.01653 1.016988
1.567301 -0.016526001 1.016988
1.564104 -0.016310999 1.0169261
1.564339 -0.016309001 1.016845
1.564652 -0.0163015 1.0169439
1.5648921 -0.016298 1.0169146
1.56514 -0.016292501 1.0169694
1.565323 -0.016288999 1.016977
1.5656869 -0.016283 1.016983
1.5658655 -0.016279999 1.01694
1.566052 -0.016276 1.016986
1.566296 -0.016271999 1.016999
1.564236 -0.016112 1.016834
1.5644181 -0.0161085 1.0168395
1.564667 -0.016102999 1.0168985
1.5649105 -0.016098499 1.016909
1.565098 -0.016093999 1.016969
1.565949 -0.016078999 1.016991
1.566071 -0.016077001 1.016992
1.567624 -0.016248999 1.0169261
1.5679286 -0.016244 1.0169365
1.5680599 -0.016142 1.016945
1.565155 -0.01571 1.016893
1.5653425 -0.015706001 1.0169489
1.566738 -0.015681 1.016946
1.564855 -0.0152955 1.0169265
1.566433 -0.015267501 1.0169311
1.566981 -0.015258 1.016951
1.567162 -0.015254499 1.0169389
1.5681355 -0.015237 1.0169694
1.5648545 -0.01494 1.016969
1.564091 -0.014045 1.016916
1.564312 -0.013131 1.016912
1.566625 -0.013089 1.016973
1.5643131 -0.012375 1.0169491
1.5646186 -0.012368999 1.0169716
1.564853 -0.0123665 1.0168829
1.566915 -0.012329999 1.0168741
1.567103 -0.012326 1.016941
1.5678935 -0.012312001 1.0169605
1.5680749 -0.012308 1.016959
1.564442 -0.011983 1.016969
1.5646859 -0.011979 1.016982
1.5648675 -0.011976 1.0169799
1.5650916 -0.011975501 1.0167695
1.5652829 -0.01197 1.016871
1.566076 -0.011955 1.0169179
1.566745 -0.011943 1.016943
1.5669274 -0.011940001 1.0169445
1.564573 -0.01172 1.016957
1.5651159 -0.011711 1.016922
1.565298 -0.011708 1.016922
1.565845 -0.011698 1.016928
1.5665765 -0.011684 1.0169671
1.566759 -0.011681 1.016974
1.5642329 -0.011464 1.0168869
1.5644159 -0.011460001 1.0168924
1.564656 -0.011457 1.01686
1.5658784 -0.011433 1.016961
1.5661216 -0.011429001 1.016961
1.5669121 -0.011415 1.016979
1.5670936 -0.011412 1.0169775
1.5673325 -0.011407999 1.016935
1.5646861 -0.0110865 1.0168669
1.564873 -0.011082 1.0169131
1.565969 -0.011062 1.016958
1.566334 -0.011055 1.0169719
1.5666389 -0.01105 1.0169854
1.566882 -0.011045501 1.016988
1.564202 -0.010676 1.016933
1.564689 -0.010667 1.016942
1.564811 -0.010665 1.0169539
1.565419 -0.010654 1.016969
1.565905 -0.010645 1.016976
1.566087 -0.010642 1.0169735
1.56415 -0.010295 1.0169265
1.564393 -0.010291 1.0169334
1.5646369 -0.010286501 1.0169475
1.5646369 -0.0097679999 1.016994
1.564738 -0.0093780002 1.016992
1.564859 -0.0093759997 1.016988
1.564065 -0.0089919996 1.016987
1.567827 -0.0089260004 1.016978
1.564332 -0.0087169996 1.016907
1.564566 -0.0087139998 1.016819
1.5643849 -0.0084739998 1.016845
1.565186 -0.0084570004 1.016979
1.5659159 -0.008444 1.016999
1.5648745 -0.0080939997 1.0169125
1.5651209 -0.0080890004 1.0169585
1.5653665 -0.0080840001 1.016989
1.565549 -0.0080810003 1.016996
1.5658514 -0.008076 1.0169849
1.566095 -0.0080709998 1.0169981
1.564666 -0.007681 1.016852
1.5648479 -0.0076780003 1.0168459
1.5650965 -0.0076720002 1.0169084
1.565284 -0.0076680002 1.016969
1.565649 -0.0076609999 1.016988
1.5658314 -0.0076580001 1.016989
1.5669169 -0.0076400004 1.0169179
1.5671594 -0.0076360004 1.016916
1.567399 -0.0076319999 1.016878
1.56795 -0.0076210001 1.016938
1.568072 -0.007619 1.016942
1.564178 -0.0072679999 1.016966
1.564356 -0.0072659999 1.016921
1.5646026 -0.0072609996 1.0169666
1.5648415 -0.0072570001 1.0169201
1.56515 -0.007251 1.0169851
1.5643134 -0.0071649998 1.0169965
1.564975 -0.0071550002 1.016928
1.565096 -0.0071530002 1.016927
1.5658799 -0.0072369999 1.017
1.566115 -0.0072349999 1.016919
1.56721 -0.0072150002 1.016945
1.564079 -0.006794 1.0169855
1.564262 -0.0067909998 1.016989
1.566777 -0.0059230002 1.016996
1.5665925 -0.0055470001 1.0169904
1.56464 -0.0050900001 1.016994
1.56476 -0.0050880001 1.016983
1.564414 -0.0036780001 1.0168639
1.567943 -0.003614 1.016979
1.5660746 -0.003334 1.0169715
1.566258 -0.003331 1.0169851
1.565267 -0.002965 1.016965
1.5655071 -0.002962 1.016937
1.564394 -0.002136 1.016878
1.564582 -0.0021309999 1.0169439
1.564485 -0.001074 1.016919
1.5646675 -0.001071 1.016922
1.5645881 0.00088000001 1.0169055
1.5659311 0.000772 1.0169704
1.564479 0.001257 1.0169491
1.5649204 0.0016775 1.0169375
1.566079 0.001699 1.016999
1.564932 0.0060359999 1.016948
1.5647449 0.0079840003 1.0168
1.564618 0.0095229996 1.0168869
1.565595 0.0095419995 1.016965
1.563692 -0.079294004 1.017158
1.567201 -0.060915999 1.0170161
1.566777 -0.059641 1.017014
1.565928 -0.059214003 1.0170165
1.5661705 -0.059210002 1.0170105
1.566596 -0.059202 1.017022
1.5664819 -0.058768 1.017004
1.566604 -0.058765002 1.017012
1.567072 -0.050427001 1.01703
1.5658231 -0.049686 1.0170385
1.566734 -0.04967 1.017048
1.5669174 -0.049666002 1.0170605
1.565251 -0.048833001 1.017036
1.5669529 -0.048802 1.017073
1.56475 -0.047660999 1.017022
1.567237 -0.047334999 1.017023
1.565688 -0.047122002 1.017056
1.56513 -0.046767998 1.017043
1.5652519 -0.046765 1.017049
1.567435 -0.046727002 1.017029
1.565006 -0.046394002 1.0170439
1.5667011 -0.046363998 1.017001
1.5673704 -0.046351999 1.017017
1.5663871 -0.045993 1.0170881
1.566566 -0.045990001 1.0170474
1.565241 -0.045612998 1.0170031
1.566214 -0.045595001 1.017029
1.5664015 -0.045590498 1.0170906
1.56664 -0.045587003 1.017043
1.566944 -0.045582 1.017042
1.567126 -0.045578502 1.0170491
1.567374 -0.045573 1.017109
1.566209 -0.043804999 1.0170209
1.564448 -0.042222001 1.017005
1.566139 -0.040982001 1.017046
1.566682 -0.040973 1.017009
1.5668041 -0.040971 1.0170161
1.567109 -0.040964998 1.017032
1.563834 -0.040600002 1.017038
1.566745 -0.040548 1.017018
1.5669315 -0.040544 1.0170635
1.567109 -0.040541999 1.017017
1.566169 -0.040251002 1.017007
1.565125 -0.040043999 1.0170031
1.5653747 -0.040037669 1.017078
1.566291 -0.040249001 1.0170161
1.566655 -0.040242001 1.017013
1.5668385 -0.040238999 1.017025
1.567106 -0.040121499 1.017033
1.563681 -0.039664 1.0170341
1.566958 -0.039606001 1.0170259
1.567203 -0.039602 1.0170521
1.567324 -0.0396 1.017043
1.564961 -0.039303999 1.017012
1.565083 -0.039301001 1.017019
1.565933 -0.039285999 1.017028
1.5660551 -0.039283998 1.0170341
1.5656195 -0.038913999 1.0170815
1.5658635 -0.038909502 1.017096
1.567258 -0.038885001 1.017073
1.565289 -0.038679998 1.017014
1.565776 -0.038672 1.017028
1.566084 -0.038665 1.0170829
1.566329 -0.038660001 1.0171034
1.5668747 -0.038651001 1.0170983
1.5671149 -0.038647 1.0170701
1.5653419 -0.038382001 1.01705
1.565585 -0.038378 1.0170521
1.56686 -0.0383555 1.017061
1.5645881 -0.038013 1.0170975
1.5648235 -0.0380105 1.0170186
1.565068 -0.038006 1.0170391
1.56525 -0.038003001 1.017041
1.5654325 -0.037998997 1.0170474
1.565614 -0.037996002 1.017038
1.563699 -0.037648998 1.017005
1.563882 -0.037646003 1.0170176
1.564124 -0.037642002 1.017007
1.5653465 -0.037618 1.0170995
1.5655885 -0.037613999 1.017092
1.565766 -0.037611999 1.017042
1.5669235 -0.037591003 1.0170825
1.567106 -0.037588 1.017086
1.567463 -0.037583001 1.017002
1.563995 -0.037346002 1.017022
1.5641785 -0.037341997 1.017035
1.564482 -0.037337001 1.017043
1.5653321 -0.037322 1.017043
1.5666155 -0.037296999 1.0171405
1.5668504 -0.0372945 1.017051
1.56709 -0.037290998 1.0170085
1.567333 -0.037286997 1.017014
1.5641534 -0.037164003 1.0170135
1.5644026 -0.037159 1.017079
1.5646455 -0.037154 1.0170805
1.565127 -0.037146501 1.0170385
1.5653706 -0.037142001 1.017043
1.566885 -0.037115999 1.017006
1.5670705 -0.037112501 1.0170491
1.5676739 -0.037102498 1.0170105
1.5634174 -0.036793999 1.0171075
1.563591 -0.036793001 1.017015
1.564198 -0.036782 1.0170209
1.5643866 -0.036777001 1.0170865
1.5646296 -0.036773 1.01709
1.564929 -0.036768001 1.017046
1.5651104 -0.036765002 1.017041
1.566572 -0.0367385 1.0170929
1.5668738 -0.036733668 1.0170721
1.5671765 -0.036728002 1.017066
1.567415 -0.036725 1.0170145
1.565533 -0.036309998 1.017022
1.5668106 -0.036287002 1.017055
1.566746 -0.035865001 1.017007
1.5651635 -0.035538003 1.0170915
1.565338 -0.035535999 1.017007
1.56558 -0.035532001 1.017001
1.566674 -0.035512 1.017023
1.5668576 -0.035508998 1.0170436
1.567041 -0.035505999 1.017051
1.565125 -0.035064999 1.017071
1.567432 -0.035023998 1.017091
1.566681 -0.034632001 1.017009
1.566808 -0.034628 1.017081
1.5672899 -0.034619998 1.017033
1.5641969 -0.034320001 1.0170031
1.5643845 -0.034316 1.017061
1.564623 -0.034312002 1.0170164
1.5648665 -0.034308001 1.0170219
1.565171 -0.034302 1.017033
1.565293 -0.034299999 1.017042
1.565536 -0.034295999 1.017038
1.56584 -0.034290001 1.0170486
1.566083 -0.034286 1.017055
1.5674205 -0.034262002 1.017081
1.565105 -0.034171 1.0170615
1.565362 -0.034163997 1.0172195
1.5655866 -0.034163497 1.0170155
1.566133 -0.034154002 1.017025
1.566255 -0.034152001 1.017028
1.5671685 -0.034134999 1.0170701
1.56742 -0.034128502 1.0171726
1.566942 -0.033748999 1.017092
1.564587 -0.033373501 1.017077
1.5648401 -0.033367001 1.0171885
1.565009 -0.033367001 1.0170389
1.566346 -0.033342998 1.017072
1.566589 -0.033337999 1.017066
1.564881 -0.033000998 1.017014
1.565003 -0.032999001 1.01702
1.566715 -0.032965999 1.017161
1.566828 -0.032965999 1.017065
1.5653961 -0.032608002 1.0170569
1.5661249 -0.032595001 1.017072
1.566308 -0.032591 1.017078
1.567515 -0.032570999 1.017001
1.567758 -0.032566998 1.017006
1.5665696 -0.0322785 1.0170181
1.566818 -0.032273002 1.0170779
1.5670605 -0.032269001 1.017082
1.563614 -0.032109 1.017042
1.564718 -0.032086998 1.0171649
1.564962 -0.032083001 1.0171731
1.565074 -0.032083001 1.0170749
1.565926 -0.032067001 1.017099
1.566105 -0.032065 1.0170624
1.566282 -0.032063 1.01701
1.5667681 -0.032054 1.01702
1.5670724 -0.032048501 1.0170314
1.5673156 -0.032044001 1.017036
1.5676811 -0.0320375 1.0170474
1.565129 -0.031739 1.017002
1.5653723 -0.031734005 1.0170087
1.5656846 -0.031727001 1.0171084
1.565858 -0.031725999 1.017007
1.566231 -0.031716999 1.017117
1.5664151 -0.031714 1.017132
1.5666499 -0.031710997 1.0170419
1.566893 -0.031707 1.01705
1.567136 -0.031701997 1.0170546
1.5673835 -0.031697001 1.0171045
1.5676219 -0.031694002 1.01706
1.565372 -0.031319998 1.017002
1.565559 -0.031314999 1.0170541
1.5671356 -0.031287998 1.0170441
1.5673785 -0.031283498 1.0170436
1.5676219 -0.031278998 1.017055
1.5636215 -0.030945498 1.0171015
1.563798 -0.030944001 1.017048
1.564407 -0.030932 1.017063
1.564528 -0.030929999 1.017064
1.5648921 -0.030924 1.017058
1.565015 -0.030921999 1.017074
1.5653236 -0.030915 1.017134
1.565567 -0.030910499 1.017144
1.5661705 -0.030900501 1.0171055
1.5671355 -0.030885 1.0170355
1.567391 -0.030877501 1.017189
1.567625 -0.030874999 1.0170856
1.5636775 -0.030741001 1.0170655
1.56459 -0.030724 1.017094
1.565189 -0.030716 1.017006
1.566649 -0.030688999 1.017041
1.5668321 -0.030686 1.0170475
1.5670755 -0.0306815 1.0170586
1.5673189 -0.030677 1.0170674
1.5675614 -0.030673001 1.0170635
1.563786 -0.030440999 1.017077
1.5645685 -0.030429 1.0170081
1.5648125 -0.0304245 1.0170195
1.5651257 -0.030417001 1.0171263
1.5654244 -0.030413 1.017074
1.565663 -0.030409001 1.017029
1.565967 -0.030404 1.017032
1.566455 -0.030394999 1.017061
1.5666471 -0.030389499 1.0171731
1.566885 -0.030386001 1.0171205
1.567072 -0.030382 1.017182
1.5673771 -0.030376 1.0171955
1.5676095 -0.030374 1.0170755
1.563818 -0.030063499 1.0170145
1.564487 -0.030052001 1.0170259
1.5646756 -0.030046999 1.017095
1.564992 -0.030038999 1.01724
1.565235 -0.030034 1.017241
1.5654089 -0.030033 1.017151
1.565596 -0.030029001 1.017211
1.5663774 -0.030016501 1.017123
1.5666215 -0.030012 1.0171355
1.567163 -0.030003 1.017085
1.567399 -0.030001 1.017005
1.5675855 -0.029996 1.017058
1.5636245 -0.029687 1.0170691
1.563863 -0.029684 1.0170245
1.564106 -0.029680001 1.0170236
1.5646025 -0.029669 1.017141
1.5648495 -0.029663499 1.0171915
1.5650771 -0.029662501 1.0170236
1.565935 -0.029646 1.0171139
1.566479 -0.029637 1.01709
1.5666699 -0.029631499 1.0171945
1.5669041 -0.029629 1.0170879
1.567148 -0.029624499 1.0171056
1.567392 -0.029619999 1.0171189
1.5676351 -0.029616 1.01712
1.5635985 -0.029378001 1.017056
1.564389 -0.029363999 1.0170701
1.5647531 -0.029356999 1.017068
1.565482 -0.029344 1.017085
1.5659089 -0.029336 1.0171061
1.566082 -0.029335 1.017004
1.5663865 -0.029329501 1.0170145
1.567368 -0.029309999 1.0171385
1.5676085 -0.029306 1.01711
1.565782 -0.029127 1.017042
1.5674241 -0.029097 1.0170815
1.563674 -0.028368 1.017018
1.56489 -0.028346 1.0170439
1.5654349 -0.028336499 1.0170355
1.5656199 -0.028333001 1.0170619
1.5673831 -0.028301001 1.0171094
1.5675581 -0.0283 1.017031
1.563625 -0.028008999 1.017051
1.5639064 -0.027771499 1.0170785
1.564088 -0.027767999 1.017078
1.564695 -0.027758 1.017079
1.566049 -0.027967 1.017018
1.566609 -0.027954001 1.0171775
1.566787 -0.027952 1.017139
1.566267 -0.027731 1.0170161
1.5668161 -0.027720999 1.017045
1.564935 -0.027474999 1.017084
1.5651881 -0.027469 1.0171961
1.566144 -0.027455 1.0170259
1.5671149 -0.027438 1.017033
1.5674195 -0.027432 1.017051
1.5676625 -0.027428001 1.0170496
1.5636849 -0.027123999 1.0170535
1.5641725 -0.027115 1.0170774
1.5646584 -0.027106 1.0170835
1.565146 -0.027097501 1.017105
1.5653939 -0.027092 1.017159
1.565627 -0.02709 1.017059
1.5661125 -0.027081 1.017061
1.5663531 -0.027077999 1.01703
1.566534 -0.027075 1.017017
1.563692 -0.026733 1.017171
1.5638654 -0.026731499 1.0170784
1.5648296 -0.026715999 1.0170076
1.5653757 -0.026706001 1.0170071
1.5664721 -0.026686 1.01705
1.566715 -0.026682001 1.017056
1.5668986 -0.026678 1.017074
1.567445 -0.026668999 1.017071
1.567566 -0.026667001 1.017071
1.563812 -0.026319001 1.017074
1.564127 -0.026312001 1.0171936
1.564908 -0.026299 1.0171061
1.565029 -0.026296999 1.017104
1.565281 -0.026291 1.017207
1.565524 -0.026287001 1.0172139
1.5661261 -0.026277002 1.0171651
1.566424 -0.026273001 1.0170984
1.5666621 -0.02627 1.0170455
1.5669141 -0.026263 1.0171549
1.567088 -0.026262 1.01706
1.5638371 -0.025915999 1.0171599
1.5644305 -0.0259085 1.0170205
1.564978 -0.025898 1.017035
1.567412 -0.025854001 1.017108
1.5675991 -0.02585 1.01717
1.563875 -0.025726 1.0170389
1.5641203 -0.025721334 1.0170667
1.564666 -0.025712 1.017059
1.564914 -0.0257065 1.017117
1.5651615 -0.025700999 1.017169
1.5654 -0.025697999 1.0171225
1.565587 -0.025694 1.017177
1.565887 -0.025689 1.0171425
1.566065 -0.025687 1.017096
1.5663 -0.025684001 1.017005
1.5668515 -0.025674 1.017069
1.567149 -0.025669999 1.017005
1.567402 -0.025663 1.0171191
1.567589 -0.025659001 1.0171776
1.5636666 -0.025407001 1.0170605
1.563915 -0.025402 1.0171266
1.5641495 -0.025398999 1.0170316
1.5648789 -0.025386 1.017046
1.5651264 -0.025381001 1.0170989
1.5656171 -0.025371 1.0171599
1.565861 -0.025366999 1.0171726
1.5660944 -0.025365001 1.017064
1.566278 -0.025361 1.017082
1.566522 -0.025356 1.0171
1.566764 -0.025351999 1.017094
1.5671238 -0.025347 1.0170355
1.567485 -0.025341 1.01701
1.563898 -0.02502 1.01704
1.56409 -0.025014 1.0171516
1.5643325 -0.025010001 1.0171471
1.564814 -0.025002001 1.0171084
1.564992 -0.025 1.01706
1.5659651 -0.024982 1.0170881
1.5661525 -0.024978001 1.017143
1.5663955 -0.024974 1.0171471
1.5666394 -0.024969 1.0171674
1.566887 -0.024964001 1.0172215
1.5671215 -0.024961501 1.0171255
1.5673549 -0.024959 1.0170169
1.5676069 -0.024953 1.0171266
1.564296 -0.024630001 1.017046
1.564904 -0.024619 1.017064
1.5650876 -0.024615999 1.0170765
1.565269 -0.024613 1.017068
1.5664295 -0.024590999 1.017154
1.5666771 -0.0245855 1.0172141
1.5669169 -0.024582 1.01718
1.5671639 -0.0245765 1.0172275
1.567399 -0.024574 1.0171355
1.5676415 -0.024569999 1.0171405
1.5678149 -0.024568999 1.017038
1.5636685 -0.0243595 1.0171905
1.5639025 -0.024357 1.017097
1.5641415 -0.024354 1.017058
1.5643895 -0.024348 1.0171106
1.5646325 -0.024343999 1.0171189
1.5648715 -0.024340499 1.0170729
1.565124 -0.024334 1.017186
1.565367 -0.024329999 1.0171854
1.565914 -0.024320001 1.017193
1.566092 -0.024317499 1.0171549
1.566323 -0.024316 1.0170231
1.5666261 -0.024311002 1.0170134
1.56687 -0.024305999 1.017031
1.567173 -0.024301 1.017028
1.5674219 -0.024295 1.0170956
1.567665 -0.024290999 1.017102
1.563779 -0.024157001 1.0171649
1.564134 -0.024152 1.017071
1.5649295 -0.024137 1.0171449
1.5654216 -0.024126999 1.0172169
1.56566 -0.024124 1.0171726
1.565847 -0.024119001 1.01723
1.5663936 -0.024110001 1.0172315
1.5666325 -0.024106499 1.0171936
1.5668736 -0.0241025 1.017169
1.5673585 -0.024094 1.0171635
1.5675964 -0.024091 1.0171134
1.563993 -0.023771999 1.017064
1.564113 -0.023770001 1.0170521
1.564723 -0.023759 1.017078
1.5649049 -0.023754999 1.0170825
1.56521 -0.02375 1.017099
1.565444 -0.023747001 1.0170031
1.5656359 -0.023742 1.0171134
1.5661175 -0.023734 1.0170685
1.56637 -0.023728 1.0171776
1.566605 -0.023724999 1.0170906
1.566843 -0.023722 1.0170345
1.567399 -0.023709999 1.017146
1.5675775 -0.023708001 1.0171044
1.567755 -0.023706 1.017053
1.56387 -0.023298999 1.0171781
1.564712 -0.023285 1.0170979
1.5648994 -0.023281001 1.0171549
