1.535711 0.192612 0.942072
1.537016 0.193307 0.942066
1.539100 0.193274 0.942047
1.541054 0.193151 0.942036
1.542956 0.193251 0.942033
1.545026 0.193131 0.942031
1.546937 0.192790 0.942024
1.548895 0.192909 0.942026
1.550952 0.193136 0.942024
1.552921 0.193062 0.942015
1.554088 0.193607 0.942013
1.519417 0.194265 0.942676
1.521137 0.194832 0.942601
1.526353 0.194101 0.942364
1.529139 0.194953 0.942283
1.531300 0.194494 0.942207
1.533225 0.194791 0.942165
1.535284 0.195443 0.942140
1.536998 0.195043 0.942103
1.538935 0.194762 0.942078
1.540917 0.194839 0.942070
1.542999 0.194864 0.942066
1.544937 0.195176 0.942069
1.546969 0.194808 0.942056
1.548798 0.194592 0.942050
1.550994 0.195176 0.942060
1.552866 0.195143 0.942039
1.554835 0.194904 0.942005
1.521568 0.197252 0.942640
1.522968 0.197203 0.942576
1.524770 0.197568 0.942511
1.527383 0.197887 0.942423
1.528261 0.197516 0.942383
1.531746 0.197948 0.942288
1.532855 0.197447 0.942245
1.534987 0.197205 0.942192
1.537001 0.197096 0.942156
1.538972 0.196676 0.942124
1.541158 0.196941 0.942117
1.542901 0.196968 0.942116
1.545072 0.197471 0.942123
1.547038 0.197267 0.942111
1.549063 0.197024 0.942098
1.550956 0.197333 0.942096
1.552914 0.197471 0.942064
1.565783 0.197896 0.941573
1.566194 0.197825 0.941557
1.570703 0.197951 0.941390
1.521519 0.198558 0.942679
1.523045 0.198699 0.942613
1.524967 0.198767 0.942538
1.526879 0.199082 0.942477
1.528982 0.198939 0.942400
1.530873 0.198540 0.942329
1.533130 0.198991 0.942285
1.534856 0.199090 0.942251
1.537164 0.199444 0.942225
1.539003 0.199145 0.942195
1.540957 0.199066 0.942178
1.543007 0.199016 0.942169
1.545009 0.198974 0.942164
1.547042 0.198891 0.942148
1.548949 0.198894 0.942143
1.550843 0.198772 0.942118
1.552671 0.198676 0.942081
1.554922 0.199109 0.942018
1.556559 0.199545 0.941942
1.565210 0.198660 0.941603
1.579403 0.199459 0.941066
1.523325 0.200654 0.942664
1.525192 0.200407 0.942579
1.527260 0.201546 0.942547
1.529124 0.201476 0.942483
1.531061 0.201053 0.942408
1.532957 0.201086 0.942360
1.535022 0.200878 0.942309
1.536922 0.200962 0.942277
1.539032 0.200923 0.942249
1.540958 0.200845 0.942231
1.542984 0.200665 0.942220
1.544936 0.200600 0.942210
1.547033 0.201185 0.942230
1.549020 0.201439 0.942204
1.550996 0.201088 0.942157
1.553010 0.200882 0.942099
1.554093 0.200572 0.942053
1.520971 0.203740 0.942881
1.523309 0.203113 0.942755
1.525087 0.202974 0.942679
1.527012 0.202950 0.942610
1.528936 0.202872 0.942543
1.530952 0.202953 0.942483
1.532933 0.202776 0.942423
1.534901 0.202591 0.942372
1.537176 0.202819 0.942340
1.538997 0.203372 0.942345
1.541078 0.203383 0.942332
1.543024 0.203117 0.942306
1.544975 0.202927 0.942297
1.546913 0.202754 0.942276
1.549031 0.202941 0.942237
1.550984 0.202870 0.942188
1.552873 0.203509 0.942126
1.559748 0.203781 0.941813
1.560024 0.203713 0.941802
1.565363 0.202733 0.941631
1.519504 0.204118 0.942962
1.523071 0.204804 0.942830
1.524995 0.204711 0.942750
1.526833 0.204579 0.942676
1.529059 0.204892 0.942620
1.530986 0.205539 0.942591
1.533062 0.205336 0.942532
1.535051 0.205069 0.942474
1.536939 0.204852 0.942438
1.538932 0.204719 0.942404
1.540932 0.204917 0.942394
1.543069 0.204983 0.942384
1.545009 0.205177 0.942374
1.547014 0.204705 0.942326
1.548933 0.204607 0.942276
1.550966 0.204993 0.942212
1.552813 0.205320 0.942125
1.554919 0.204827 0.942026
1.557956 0.204156 0.941894
1.558232 0.204107 0.941883
1.560003 0.204529 0.941806
1.520442 0.206187 0.942998
1.525102 0.207706 0.942886
1.527040 0.207084 0.942792
1.528954 0.206799 0.942714
1.531052 0.206855 0.942663
1.532886 0.206890 0.942616
1.534946 0.207144 0.942583
1.536980 0.207029 0.942536
1.538955 0.206591 0.942485
1.541157 0.206885 0.942474
1.542827 0.207067 0.942459
1.545077 0.207442 0.942431
1.547076 0.207154 0.942380
1.548981 0.206974 0.942308
1.550977 0.207014 0.942221
1.552885 0.206508 0.942124
1.520651 0.208737 0.943094
1.523219 0.208485 0.942989
1.525197 0.209097 0.942953
1.527021 0.209162 0.942896
1.529017 0.208862 0.942817
1.530804 0.208559 0.942751
1.533068 0.208989 0.942714
1.534875 0.209205 0.942686
1.537002 0.209367 0.942652
1.539110 0.209099 0.942596
1.540909 0.208956 0.942560
1.543001 0.208737 0.942508
1.545029 0.208988 0.942468
1.546973 0.208975 0.942411
1.548991 0.209343 0.942319
1.550995 0.208876 0.942217
1.552805 0.208637 0.942128
1.554928 0.209556 0.942027
1.556887 0.209375 0.941926
1.558727 0.208958 0.941862
1.569490 0.209497 0.941512
1.521182 0.210254 0.943133
1.523810 0.210423 0.943058
1.524713 0.211450 0.943066
1.527361 0.211574 0.942991
1.529093 0.211284 0.942921
1.531073 0.211031 0.942853
1.532896 0.210956 0.942806
1.535029 0.210673 0.942747
1.537004 0.211135 0.942711
1.538994 0.211152 0.942666
1.540968 0.211171 0.942617
1.542976 0.210723 0.942549
1.544999 0.210762 0.942483
1.546931 0.210924 0.942398
1.549182 0.211347 0.942298
1.551116 0.211039 0.942198
1.552950 0.211008 0.942110
1.554219 0.211467 0.942044
1.557462 0.210753 0.941913
1.558773 0.210467 0.941869
1.523705 0.212792 0.943135
1.525017 0.212511 0.943086
1.527091 0.212670 0.943032
1.529008 0.212920 0.942983
1.530989 0.213310 0.942937
1.533019 0.213047 0.942873
1.534954 0.212592 0.942799
1.537171 0.212994 0.942749
1.538843 0.213132 0.942698
1.541164 0.213327 0.942621
1.543103 0.213161 0.942547
1.544921 0.213021 0.942480
1.546985 0.212888 0.942401
1.548982 0.212766 0.942302
1.551013 0.213231 0.942198
1.553082 0.213431 0.942093
1.554948 0.213191 0.942016
1.557176 0.213283 0.941937
1.558569 0.212832 0.941886
1.561321 0.213993 0.941802
1.563276 0.212228 0.941725
1.521923 0.215193 0.943230
1.523137 0.214918 0.943190
1.525017 0.214599 0.943141
1.526839 0.214447 0.943084
1.529158 0.214811 0.943014
1.530822 0.215108 0.942963
1.533028 0.215327 0.942889
1.535079 0.215137 0.942821
1.536905 0.214961 0.942761
1.539025 0.214678 0.942680
1.540984 0.214889 0.942615
1.542979 0.215020 0.942538
1.545006 0.215322 0.942449
1.547092 0.215102 0.942358
1.548913 0.214888 0.942278
1.551004 0.214642 0.942187
1.553034 0.214984 0.942108
1.554530 0.214316 0.942037
1.557046 0.214937 0.941951
1.523516 0.217929 0.943192
1.524883 0.217628 0.943149
1.527131 0.217080 0.943072
1.528987 0.216947 0.943016
1.531105 0.216603 0.942947
1.532990 0.217053 0.942882
1.535016 0.217278 0.942811
1.536985 0.217163 0.942744
1.539009 0.217040 0.942663
1.540913 0.216861 0.942595
1.542966 0.216657 0.942511
1.545010 0.217054 0.942430
1.547041 0.217362 0.942345
1.548980 0.217284 0.942274
1.550985 0.216808 0.942201
1.552937 0.216944 0.942129
1.554551 0.217335 0.942076
1.557091 0.217287 0.941973
1.558308 0.217207 0.941928
1.561072 0.217826 0.941840
1.521988 0.218272 0.943244
1.522402 0.218171 0.943228
1.524836 0.218669 0.943150
1.527378 0.219144 0.943064
1.529128 0.219096 0.943007
1.531001 0.218863 0.942941
1.532965 0.218805 0.942867
1.534961 0.218845 0.942792
1.537072 0.219003 0.942715
1.539087 0.219444 0.942635
1.541009 0.219101 0.942570
1.543041 0.218811 0.942498
1.545004 0.218833 0.942424
1.546844 0.218745 0.942362
1.549142 0.219145 0.942293
1.551081 0.219117 0.942223
1.553041 0.219378 0.942160
1.555236 0.219796 0.942082
1.556897 0.219424 0.942018
1.558693 0.219030 0.941932
1.527165 0.221625 0.943044
1.529286 0.221258 0.942974
1.531035 0.221415 0.942912
1.533009 0.220964 0.942845
1.535012 0.220873 0.942776
1.536920 0.220743 0.942711
1.538797 0.220761 0.942652
1.541011 0.221167 0.942596
1.542960 0.221223 0.942527
1.545249 0.221511 0.942468
1.546980 0.221730 0.942413
1.548974 0.221277 0.942331
1.550977 0.220859 0.942252
1.552975 0.220397 0.942172
1.554274 0.220098 0.942122
1.523508 0.223206 0.943156
1.525054 0.222794 0.943106
1.527053 0.222529 0.943044
1.529044 0.222626 0.942984
1.531071 0.223010 0.942928
1.533075 0.223100 0.942867
1.535014 0.223340 0.942812
1.537617 0.223819 0.942752
1.539029 0.223569 0.942708
1.541007 0.223115 0.942640
1.543007 0.222677 0.942563
1.544964 0.222260 0.942493
1.529507 0.225753 0.943012
1.530993 0.225432 0.942966
1.533011 0.224967 0.942907
1.535019 0.224538 0.942843
1.536672 0.224157 0.942789
1.528180 0.226084 0.943051
1.498637 0.013830 0.943413
1.499893 0.013439 0.944369
1.501856 0.013522 0.945724
1.496221 0.014660 0.941383
1.497192 0.014342 0.942202
1.498433 0.014763 0.943280
1.500064 0.015070 0.944547
1.501823 0.014772 0.945748
1.496033 0.016830 0.941209
1.497186 0.016706 0.942210
1.498856 0.017375 0.943640
1.500768 0.017271 0.945099
1.501750 0.017283 0.945748
1.495961 0.019223 0.941130
1.497363 0.019123 0.942362
1.498414 0.019030 0.943282
1.501870 0.018543 0.945828
1.495974 0.020951 0.941125
1.497056 0.020775 0.942084
1.498656 0.021138 0.943488
1.500084 0.021786 0.944620
1.501757 0.021110 0.945786
1.496116 0.023480 0.941240
1.497333 0.023003 0.942327
1.498680 0.022557 0.943492
1.500368 0.022668 0.944841
1.501852 0.022701 0.945848
1.496040 0.025044 0.941182
1.497245 0.024725 0.942245
1.498711 0.025240 0.943540
1.500263 0.024443 0.944757
1.501932 0.024953 0.945924
1.496122 0.027125 0.941257
1.497286 0.026981 0.942282
1.498779 0.027004 0.943576
1.500412 0.026639 0.944868
1.501746 0.026290 0.945786
1.495964 0.029267 0.941169
1.497162 0.029458 0.942202
1.498558 0.029265 0.943419
1.499823 0.028846 0.944448
1.501907 0.029437 0.945934
1.495996 0.030958 0.941207
1.497219 0.031191 0.942269
1.498627 0.031171 0.943491
1.500181 0.030426 0.944712
1.501787 0.031065 0.945841
1.496030 0.033106 0.941276
1.497220 0.033243 0.942277
1.498639 0.033103 0.943509
1.500683 0.032335 0.945084
1.501674 0.032867 0.945757
1.495966 0.034839 0.941271
1.497259 0.034729 0.942339
1.498698 0.035172 0.943575
1.500207 0.034715 0.944735
1.501855 0.034914 0.945883
1.495910 0.036659 0.941274
1.497276 0.037003 0.942384
1.498836 0.037558 0.943693
1.500403 0.037120 0.944893
1.501823 0.036963 0.945859
1.495960 0.038987 0.941357
1.497169 0.038940 0.942349
1.498622 0.039005 0.943545
1.500239 0.039593 0.944796
1.501931 0.039122 0.945948
1.495812 0.040969 0.941320
1.497343 0.041005 0.942521
1.498671 0.040825 0.943582
1.500169 0.040415 0.944722
1.501901 0.040698 0.945902
1.495889 0.043098 0.941431
1.497132 0.042965 0.942385
1.498834 0.043152 0.943724
1.500457 0.042762 0.944931
1.501830 0.042869 0.945851
1.495025 0.045232 0.940923
1.495862 0.045106 0.941444
1.497217 0.044943 0.942468
1.498661 0.045013 0.943606
1.500288 0.044865 0.944821
1.501879 0.045041 0.945895
1.495046 0.046929 0.940996
1.495797 0.046884 0.941442
1.497213 0.046982 0.942498
1.498817 0.047114 0.943775
1.500361 0.047015 0.944895
1.501787 0.046990 0.945845
1.494970 0.049129 0.941038
1.495775 0.049142 0.941528
1.497219 0.048850 0.942564
1.498779 0.048773 0.943745
1.500211 0.049642 0.944836
1.501682 0.049246 0.945803
1.494853 0.050686 0.941034
1.495614 0.050840 0.941455
1.497259 0.051120 0.942655
1.498609 0.050859 0.943681
1.500319 0.050933 0.944914
1.502028 0.050509 0.946028
1.494828 0.052546 0.941052
1.495799 0.052989 0.941654
1.497220 0.053500 0.942676
1.498706 0.053347 0.943788
1.500347 0.052689 0.944948
1.501804 0.052369 0.945892
1.494841 0.054593 0.941150
1.495643 0.054691 0.941598
1.497078 0.054898 0.942619
1.498587 0.054889 0.943766
1.500279 0.055059 0.944962
1.501852 0.054585 0.945977
1.494779 0.056881 0.941215
1.495534 0.056926 0.941602
1.497127 0.056799 0.942698
1.498758 0.057044 0.943894
1.500298 0.057305 0.944996
1.501858 0.057245 0.945996
1.494710 0.059511 0.941242
1.495614 0.059222 0.941734
1.497165 0.059006 0.942782
1.498636 0.058795 0.943839
1.500118 0.058588 0.944880
1.501758 0.059138 0.945959
1.494670 0.061223 0.941257
1.495605 0.060954 0.941753
1.497117 0.061247 0.942783
1.498680 0.061057 0.943897
1.500112 0.060510 0.944912
1.501923 0.061067 0.946058
1.494734 0.063044 0.941320
1.495610 0.063102 0.941802
1.497248 0.063445 0.942944
1.498762 0.063263 0.944026
1.500306 0.062972 0.945086
1.501591 0.062878 0.945900
1.494637 0.064775 0.941309
1.495679 0.064957 0.941902
1.497042 0.064844 0.942831
1.498567 0.065104 0.943917
1.500282 0.065099 0.945098
1.501943 0.065090 0.946143
1.494612 0.066975 0.941352
1.495576 0.066996 0.941875
1.497099 0.066956 0.942900
1.498752 0.067061 0.944086
1.500337 0.067084 0.945185
1.501791 0.067170 0.946091
1.494574 0.069283 0.941343
1.495553 0.069192 0.941914
1.497086 0.068923 0.942942
1.498669 0.068679 0.944070
1.500077 0.068700 0.945053
1.501912 0.069058 0.946208
1.494522 0.071183 0.941372
1.495518 0.071208 0.941933
1.497115 0.070831 0.942985
1.498623 0.070668 0.944057
1.500288 0.070957 0.945199
1.501749 0.071025 0.946120
1.494569 0.073355 0.941402
1.495616 0.073053 0.942012
1.497135 0.073163 0.943055
1.498678 0.073096 0.944142
1.500306 0.073346 0.945271
1.501818 0.073017 0.946206
1.494502 0.075158 0.941410
1.495512 0.074835 0.941978
1.497072 0.074667 0.943027
1.498580 0.074837 0.944103
1.500129 0.074951 0.945176
1.501831 0.074835 0.946236
1.494452 0.076957 0.941380
1.495598 0.077099 0.942061
1.497016 0.076913 0.943029
1.498676 0.077045 0.944223
1.500335 0.077010 0.945351
1.501817 0.076780 0.946275
1.494497 0.079027 0.941410
1.495504 0.079235 0.942029
1.497037 0.079342 0.943098
1.498591 0.078878 0.944194
1.500029 0.078700 0.945183
1.501892 0.078796 0.946346
1.494439 0.080937 0.941395
1.495439 0.080791 0.942009
1.497016 0.081098 0.943122
1.498775 0.080942 0.944355
1.500239 0.080932 0.945357
1.501827 0.081190 0.946358
1.494451 0.083358 0.941424
1.495550 0.083087 0.942127
1.497028 0.083162 0.943161
1.498607 0.083026 0.944293
1.500247 0.083293 0.945421
1.501854 0.083084 0.946407
1.494365 0.085157 0.941399
1.495471 0.085076 0.942101
1.497075 0.084952 0.943224
1.498520 0.084837 0.944280
1.500125 0.084694 0.945378
1.501698 0.084440 0.946356
1.494337 0.086543 0.941399
1.495572 0.086895 0.942198
1.496942 0.087024 0.943176
1.498581 0.087160 0.944374
1.500234 0.087178 0.945506
1.501783 0.086818 0.946444
1.494366 0.088964 0.941418
1.495494 0.089039 0.942161
1.497043 0.089318 0.943293
1.498597 0.089089 0.944400
1.500218 0.088951 0.945517
1.501764 0.088572 0.946464
1.494319 0.090724 0.941434
1.495364 0.090474 0.942100
1.496967 0.090828 0.943250
1.498599 0.091332 0.944449
1.500224 0.091322 0.945558
1.501778 0.091254 0.946515
1.494329 0.093268 0.941457
1.495498 0.093147 0.942226
1.497006 0.093153 0.943328
1.498578 0.093019 0.944465
1.500223 0.092892 0.945588
1.501844 0.092809 0.946589
1.494247 0.094804 0.941427
1.495402 0.094892 0.942180
1.496870 0.094749 0.943255
1.498408 0.094641 0.944393
1.500307 0.095037 0.945694
1.501689 0.094874 0.946536
1.494242 0.096909 0.941471
1.495448 0.097241 0.942270
1.496973 0.097205 0.943386
1.498619 0.096775 0.944573
1.500129 0.097083 0.945619
1.501877 0.096885 0.946678
1.494234 0.098971 0.941509
1.495413 0.099081 0.942277
1.496967 0.099004 0.943403
1.498596 0.098882 0.944598
1.500187 0.098959 0.945686
1.501742 0.098638 0.946634
1.494199 0.100729 0.941553
1.495459 0.100889 0.942377
1.496929 0.101066 0.943448
1.498512 0.101058 0.944586
1.500235 0.101230 0.945754
1.501842 0.100820 0.946725
1.494191 0.103009 0.941557
1.495469 0.102831 0.942419
1.497012 0.103307 0.943550
1.498520 0.103184 0.944650
1.500218 0.103169 0.945791
1.501751 0.102870 0.946707
1.494107 0.105059 0.941569
1.495349 0.104754 0.942369
1.496942 0.104703 0.943520
1.498470 0.104937 0.944638
1.500147 0.105122 0.945761
1.501781 0.105067 0.946753
1.494074 0.107268 0.941613
1.495382 0.106879 0.942425
1.496843 0.106553 0.943472
1.498597 0.106952 0.944741
1.500163 0.107392 0.945798
1.501943 0.107349 0.946862
1.494115 0.109409 0.941639
1.495389 0.109278 0.942475
1.496908 0.108819 0.943541
1.498528 0.108777 0.944695
1.500202 0.108991 0.945829
1.501722 0.109157 0.946734
1.494046 0.111100 0.941651
1.495391 0.111277 0.942515
1.496904 0.111053 0.943584
1.498452 0.110788 0.944687
1.500076 0.110534 0.945767
1.501860 0.110935 0.946826
1.494048 0.112692 0.941664
1.495316 0.113026 0.942485
1.497009 0.113379 0.943691
1.498538 0.113381 0.944767
1.500185 0.113168 0.945864
1.501804 0.113042 0.946817
1.494001 0.115014 0.941674
1.495411 0.115053 0.942551
1.496863 0.114694 0.943589
1.498418 0.114553 0.944699
1.500241 0.115054 0.945899
1.501809 0.114890 0.946804
1.494004 0.116954 0.941754
1.495372 0.117303 0.942605
1.496920 0.117182 0.943667
1.498522 0.117018 0.944794
1.500207 0.116878 0.945887
1.501901 0.116887 0.946871
1.494024 0.118949 0.941800
1.495285 0.119021 0.942566
1.496834 0.119062 0.943642
1.498492 0.118955 0.944799
1.500226 0.118683 0.945918
1.501875 0.119045 0.946883
1.493853 0.120961 0.941783
1.495241 0.120940 0.942596
1.496906 0.121061 0.943734
1.498626 0.121043 0.944917
1.500088 0.120976 0.945857
1.501881 0.121135 0.946906
1.493803 0.123161 0.941829
1.495404 0.123102 0.942750
1.496885 0.123081 0.943745
1.498497 0.123116 0.944832
1.500191 0.123157 0.945922
1.501888 0.123089 0.946893
1.493907 0.125097 0.941941
1.495220 0.124980 0.942695
1.496863 0.124828 0.943764
1.498378 0.124526 0.944794
1.500269 0.124936 0.945999
1.501785 0.125374 0.946866
1.493694 0.127056 0.941878
1.495319 0.127220 0.942841
1.497008 0.127033 0.943943
1.498477 0.126993 0.944951
1.500179 0.127109 0.946029
1.501938 0.127290 0.947037
1.502962 0.126625 0.947527
1.493875 0.129340 0.942131
1.495259 0.129022 0.942925
1.496795 0.129051 0.943930
1.498432 0.129012 0.945040
1.500178 0.128941 0.946121
1.501935 0.129137 0.947135
1.503065 0.128434 0.947661
1.493595 0.131065 0.942221
1.495204 0.130836 0.943075
1.496716 0.130818 0.944029
1.498570 0.130758 0.945245
1.500019 0.131267 0.946169
1.501916 0.131691 0.947205
1.493679 0.133611 0.942590
1.495183 0.133396 0.943353
1.496798 0.133255 0.944329
1.498385 0.133016 0.945288
1.500213 0.133036 0.946350
1.501975 0.133216 0.947288
1.493432 0.134853 0.942650
1.495062 0.134969 0.943484
1.496752 0.135080 0.944452
1.498434 0.135104 0.945438
1.500067 0.134837 0.946337
1.501774 0.134706 0.947198
1.493605 0.136357 0.942919
1.494935 0.136386 0.943535
1.496639 0.137128 0.944528
1.498504 0.137330 0.945538
1.500348 0.137549 0.946471
1.502078 0.137485 0.947271
1.493268 0.139414 0.943099
1.494945 0.139595 0.943804
1.496967 0.139376 0.944757
1.498537 0.139143 0.945543
1.500196 0.139157 0.946343
1.501975 0.139094 0.947133
1.493086 0.140776 0.943150
1.494846 0.140708 0.943809
1.496585 0.141000 0.944589
1.498351 0.141015 0.945418
1.500340 0.141058 0.946306
1.502384 0.141406 0.947102
1.503424 0.142159 0.947388
1.493157 0.142646 0.943260
1.494844 0.143049 0.943852
1.496893 0.143583 0.944679
1.498587 0.143426 0.945380
1.500451 0.143356 0.946144
1.502349 0.143518 0.946847
1.503437 0.144290 0.947124
1.493046 0.144887 0.943290
1.494963 0.145143 0.943890
1.496668 0.144962 0.944526
1.498602 0.144769 0.945288
1.500530 0.145435 0.945947
1.502246 0.145393 0.946556
1.503515 0.145604 0.946928
1.492146 0.147765 0.943052
1.493102 0.146879 0.943282
1.494890 0.147085 0.943799
1.496966 0.147053 0.944505
1.498732 0.147143 0.945124
1.500756 0.147689 0.945731
1.502552 0.147617 0.946291
1.492145 0.149222 0.943038
1.493230 0.149313 0.943268
1.495018 0.149153 0.943730
1.496790 0.149144 0.944281
1.498725 0.149134 0.944895
1.500667 0.149070 0.945506
1.502637 0.149373 0.946016
1.503713 0.149214 0.946329
1.492050 0.150500 0.942974
1.493081 0.150897 0.943163
1.494941 0.150861 0.943610
1.496898 0.151081 0.944136
1.498994 0.151201 0.944720
1.500662 0.151207 0.945178
1.502719 0.151374 0.945649
1.503867 0.151199 0.945955
1.492005 0.152800 0.942887
1.492934 0.152958 0.943051
1.495049 0.152858 0.943512
1.497016 0.153253 0.943975
1.498792 0.153369 0.944364
1.500874 0.153470 0.944858
1.502851 0.153276 0.945341
1.504001 0.153503 0.945514
1.491954 0.155292 0.942715
1.493092 0.155077 0.942939
1.495033 0.154944 0.943361
1.496928 0.154822 0.943788
1.498919 0.154693 0.944241
1.500932 0.155035 0.944626
1.502818 0.155275 0.944944
1.504843 0.155597 0.945189
1.506889 0.155501 0.945485
1.508833 0.155453 0.945715
1.510823 0.155511 0.945894
1.512664 0.155731 0.945942
1.515053 0.156224 0.945919
1.516787 0.155984 0.946055
1.518923 0.155829 0.946151
1.520271 0.155597 0.946269
1.526792 0.155714 0.946152
1.530855 0.155637 0.946024
1.533416 0.155867 0.945821
1.535054 0.156512 0.945518
1.491948 0.157142 0.942618
1.493059 0.156910 0.942832
1.495138 0.157384 0.943188
1.497094 0.157249 0.943580
1.498936 0.157075 0.943927
1.500854 0.156920 0.944316
1.502895 0.157106 0.944600
1.505000 0.157261 0.944854
1.506895 0.157482 0.945008
1.508895 0.157268 0.945242
1.510814 0.157040 0.945449
1.512858 0.157078 0.945540
1.514822 0.157486 0.945503
1.517047 0.157962 0.945423
1.518694 0.157966 0.945405
1.520849 0.158020 0.945388
1.522743 0.157757 0.945460
1.491937 0.158891 0.942607
1.493179 0.158838 0.942784
1.494941 0.158862 0.943069
1.497003 0.159103 0.943381
1.499028 0.159260 0.943682
1.500936 0.158882 0.944016
1.502961 0.158739 0.944324
1.504966 0.158948 0.944496
1.506738 0.159278 0.944586
1.509016 0.159560 0.944700
1.511002 0.159436 0.944833
1.512948 0.159392 0.944890
1.515029 0.159426 0.944922
1.516621 0.158889 0.945097
1.518387 0.158612 0.945189
1.520196 0.160256 0.944671
1.491904 0.160793 0.942575
1.493001 0.160654 0.942757
1.495078 0.160496 0.943052
1.496963 0.160901 0.943259
1.499153 0.161419 0.943517
1.501008 0.161320 0.943724
1.502981 0.161143 0.943923
1.504910 0.161237 0.944087
1.506995 0.161206 0.944248
1.508917 0.161163 0.944354
1.510990 0.161113 0.944431
1.512892 0.161079 0.944466
1.514845 0.160953 0.944512
1.517110 0.160746 0.944577
1.518234 0.160658 0.944586
1.491842 0.163261 0.942650
1.493132 0.163148 0.942794
1.495079 0.163008 0.943001
1.497112 0.163138 0.943212
1.499025 0.163059 0.943397
1.500988 0.162916 0.943550
1.503015 0.162949 0.943711
1.504981 0.162825 0.943862
1.506940 0.162677 0.943979
1.509170 0.163089 0.944000
1.510826 0.163165 0.944016
1.512996 0.163196 0.944008
1.515177 0.163188 0.943986
1.516931 0.163510 0.943901
1.518906 0.163247 0.943924
1.521224 0.162754 0.943968
1.491769 0.164944 0.942777
1.492992 0.164859 0.942863
1.494957 0.164812 0.943017
1.496903 0.164645 0.943178
1.498842 0.164521 0.943323
1.501090 0.164975 0.943414
1.502857 0.165199 0.943504
1.504980 0.164921 0.943614
1.507081 0.165059 0.943671
1.508990 0.165189 0.943673
1.511062 0.165371 0.943658
1.512930 0.165159 0.943654
1.514806 0.164830 0.943670
1.517096 0.165218 0.943558
1.519011 0.165087 0.943525
1.491734 0.167144 0.942967
1.492875 0.166993 0.942974
1.495020 0.167156 0.943107
1.497087 0.166909 0.943194
1.498981 0.166942 0.943268
1.501059 0.167360 0.943336
1.503105 0.167255 0.943384
1.504975 0.166934 0.943476
1.507017 0.166992 0.943475
1.508919 0.166869 0.943482
1.510909 0.166717 0.943473
1.513156 0.167105 0.943382
1.514966 0.166927 0.943337
1.516946 0.167131 0.943229
1.518815 0.166708 0.943205
1.520924 0.167560 0.942952
1.522795 0.167305 0.942910
1.491794 0.169509 0.943167
1.493003 0.169357 0.943206
1.495022 0.169202 0.943222
1.496945 0.168807 0.943227
1.499028 0.168977 0.943260
1.500917 0.168808 0.943322
1.502870 0.168641 0.943347
1.505041 0.169095 0.943337
1.506804 0.168987 0.943349
1.509003 0.168935 0.943308
1.511193 0.168868 0.943240
1.512903 0.169153 0.943148
1.514935 0.169415 0.943008
1.517066 0.168773 0.942961
1.518820 0.168746 0.942877
1.520952 0.169339 0.942687
1.522206 0.169055 0.942661
1.491676 0.170820 0.943293
1.492975 0.170744 0.943297
1.495081 0.170895 0.943331
1.497016 0.170969 0.943302
1.498924 0.171060 0.943299
1.501047 0.170733 0.943309
1.503095 0.170958 0.943307
1.505060 0.171353 0.943294
1.507002 0.171275 0.943267
1.509072 0.170954 0.943209
1.510905 0.170911 0.943134
1.512953 0.170710 0.942993
1.514914 0.171151 0.942836
1.517063 0.170833 0.942741
1.518723 0.171256 0.942617
1.521303 0.171230 0.942458
1.522573 0.171207 0.942389
1.491700 0.172889 0.943472
1.493132 0.172893 0.943451
1.494908 0.172975 0.943417
1.497134 0.173469 0.943430
1.498975 0.173099 0.943380
1.501053 0.172931 0.943385
1.502927 0.172921 0.943392
1.505028 0.172899 0.943321
1.506984 0.173083 0.943255
1.509021 0.172944 0.943140
1.510971 0.173080 0.943008
1.513040 0.172939 0.942862
1.515045 0.173023 0.942725
1.516938 0.172948 0.942594
1.518983 0.172787 0.942476
1.520676 0.172601 0.942397
1.522818 0.172308 0.942296
1.491777 0.175165 0.943673
1.492931 0.174976 0.943600
1.494977 0.174851 0.943544
1.496974 0.175067 0.943509
1.499000 0.174894 0.943462
1.500908 0.175176 0.943439
1.503056 0.174977 0.943427
1.504887 0.175033 0.943363
1.507090 0.175043 0.943228
1.508904 0.174927 0.943118
1.510996 0.175021 0.942949
1.513030 0.174980 0.942803
1.514945 0.174901 0.942669
1.516882 0.174786 0.942540
1.518996 0.175101 0.942415
1.520529 0.175483 0.942337
1.491701 0.176654 0.943724
1.493062 0.177173 0.943727
1.495094 0.177045 0.943660
1.496929 0.176981 0.943587
1.499035 0.176979 0.943553
1.501062 0.177131 0.943568
1.502959 0.176925 0.943511
1.505076 0.177049 0.943409
1.506879 0.176860 0.943299
1.509042 0.176696 0.943105
1.511012 0.177099 0.942945
1.512972 0.176997 0.942810
1.514961 0.177164 0.942678
1.517021 0.177024 0.942529
1.518931 0.176997 0.942399
1.520874 0.177255 0.942305
1.522684 0.177220 0.942230
1.524236 0.176955 0.942150
1.527299 0.176267 0.942022
1.528134 0.176077 0.941982
1.491400 0.178428 0.943870
1.493226 0.179113 0.943827
1.494918 0.178920 0.943753
1.496982 0.178997 0.943672
1.498925 0.178820 0.943639
1.501003 0.178956 0.943625
1.503025 0.178957 0.943578
1.504984 0.179200 0.943482
1.506975 0.179024 0.943320
1.508939 0.178992 0.943158
1.511084 0.179051 0.942964
1.512986 0.179080 0.942816
1.515070 0.179214 0.942692
1.516865 0.179111 0.942580
1.518968 0.178687 0.942438
1.520844 0.178853 0.942348
1.523037 0.178564 0.942239
1.524468 0.179164 0.942190
1.491548 0.180487 0.943927
1.493112 0.181040 0.943877
1.495003 0.180857 0.943787
1.497011 0.181298 0.943748
1.499136 0.181027 0.943755
1.500916 0.180999 0.943717
1.503098 0.181002 0.943637
1.505058 0.181175 0.943537
1.507041 0.181179 0.943372
1.509001 0.181052 0.943214
1.510953 0.180770 0.943044
1.512913 0.180733 0.942903
1.514900 0.181034 0.942768
1.516955 0.181038 0.942632
1.518950 0.180598 0.942510
1.520967 0.181121 0.942426
1.522427 0.181198 0.942368
1.491489 0.182398 0.943941
1.493148 0.183064 0.943889
1.494994 0.182998 0.943827
1.497068 0.183241 0.943799
1.498945 0.183209 0.943789
1.500999 0.182916 0.943777
1.503022 0.182767 0.943681
1.504981 0.182753 0.943579
1.506929 0.183124 0.943444
1.508975 0.182911 0.943276
1.510958 0.182597 0.943123
1.512982 0.182998 0.943010
1.515064 0.183388 0.942869
1.517000 0.183168 0.942752
1.518982 0.183074 0.942637
1.520909 0.182929 0.942521
1.522470 0.182453 0.942416
1.491574 0.185101 0.943953
1.493016 0.184844 0.943903
1.494987 0.184783 0.943838
1.497000 0.184897 0.943807
1.499024 0.185184 0.943815
1.501045 0.184720 0.943776
1.502991 0.184819 0.943704
1.504876 0.184971 0.943594
1.507065 0.185420 0.943424
1.509090 0.185173 0.943267
1.511012 0.185001 0.943134
1.512985 0.185079 0.943000
1.514977 0.184892 0.942871
1.516926 0.184877 0.942748
1.518963 0.184744 0.942628
1.520835 0.184883 0.942528
1.522080 0.184469 0.942463
1.491551 0.186883 0.943964
1.492998 0.186588 0.943913
1.495094 0.187046 0.943849
1.496934 0.187117 0.943819
1.499000 0.187293 0.943828
1.501068 0.187104 0.943774
1.502984 0.187107 0.943700
1.504999 0.186888 0.943582
1.507040 0.186991 0.943422
1.508918 0.186803 0.943276
1.510855 0.186665 0.943138
1.513144 0.187010 0.942982
1.514869 0.186954 0.942871
1.517014 0.187408 0.942736
1.519119 0.187214 0.942614
1.520860 0.186946 0.942521
1.491527 0.189057 0.943974
1.493087 0.188968 0.943919
1.494996 0.189147 0.943861
1.496999 0.188844 0.943827
1.499019 0.188971 0.943835
1.500928 0.188761 0.943784
1.502849 0.188682 0.943716
1.505017 0.189060 0.943581
1.506972 0.189179 0.943422
1.508997 0.189262 0.943276
1.511046 0.189107 0.943132
1.513001 0.189008 0.942999
1.514988 0.188941 0.942867
1.517018 0.189055 0.942741
1.518845 0.188867 0.942637
1.520846 0.189063 0.942534
1.522736 0.189511 0.942439
1.535349 0.189345 0.942029
1.536198 0.189066 0.942013
1.491518 0.190718 0.943980
1.493046 0.190652 0.943926
1.495157 0.191004 0.943864
1.496942 0.190962 0.943834
1.499121 0.191444 0.943834
1.501057 0.191140 0.943792
1.503016 0.190979 0.943720
1.505075 0.191077 0.943579
1.507042 0.190980 0.943422
1.509015 0.190969 0.943284
1.511040 0.191036 0.943143
1.512921 0.190880 0.943017
1.515038 0.191004 0.942877
1.516904 0.190910 0.942760
1.518920 0.190576 0.942644
1.521126 0.190953 0.942534
1.522738 0.191134 0.942457
1.533674 0.191334 0.942088
1.534948 0.191027 0.942057
1.536327 0.190709 0.942032
1.491593 0.193174 0.943987
1.493069 0.193051 0.943935
1.494979 0.192951 0.943876
1.497005 0.193046 0.943838
1.498999 0.193036 0.943834
1.500959 0.192837 0.943793
1.503005 0.193075 0.943725
1.505003 0.192930 0.943595
1.506907 0.193011 0.943448
1.509008 0.192781 0.943301
1.510822 0.192571 0.943177
1.513047 0.192976 0.943032
1.515084 0.193462 0.942905
1.516990 0.193185 0.942786
1.519068 0.192902 0.942666
1.520989 0.193055 0.942572
1.522951 0.193142 0.942482
1.524260 0.193680 0.942438
1.533824 0.192598 0.942106
1.534960 0.193060 0.942091
1.491618 0.195194 0.943990
1.493079 0.195072 0.943937
1.494965 0.194927 0.943882
1.497100 0.195042 0.943842
1.498936 0.194923 0.943843
1.500984 0.194633 0.943797
1.503149 0.194852 0.943727
1.504882 0.195032 0.943624
1.506993 0.195470 0.943471
1.509005 0.195004 0.943329
1.511059 0.194909 0.943188
1.512990 0.195169 0.943070
1.514926 0.195172 0.942952
1.517014 0.194877 0.942819
1.518878 0.194954 0.942716
1.520622 0.194550 0.942619
1.522833 0.194681 0.942517
1.525128 0.194771 0.942425
1.526948 0.195664 0.942377
1.528397 0.195455 0.942322
1.531353 0.195870 0.942242
1.533130 0.195528 0.942187
1.534803 0.195093 0.942140
1.536040 0.194704 0.942110
1.491467 0.196829 0.943999
1.492840 0.196578 0.943948
1.495101 0.196962 0.943885
1.496991 0.197310 0.943847
1.498994 0.197298 0.943836
1.501079 0.196927 0.943795
1.503020 0.197032 0.943740
1.505064 0.197167 0.943629
1.507012 0.197152 0.943494
1.509064 0.196784 0.943353
1.510962 0.196775 0.943232
1.512912 0.196730 0.943106
1.514983 0.196741 0.942979
1.517077 0.196970 0.942861
1.518888 0.197288 0.942772
1.520665 0.197222 0.942684
1.523394 0.196417 0.942537
1.525167 0.196696 0.942473
1.526995 0.197231 0.942419
1.529028 0.196957 0.942342
1.530891 0.196790 0.942280
1.532882 0.196702 0.942223
1.534920 0.196727 0.942178
1.536053 0.197467 0.942180
1.491675 0.198794 0.943993
1.493112 0.198987 0.943944
1.495055 0.199122 0.943889
1.496945 0.199217 0.943849
1.499010 0.198983 0.943831
1.501043 0.198798 0.943799
1.502890 0.198766 0.943745
1.504808 0.198724 0.943667
1.507092 0.198729 0.943507
1.508884 0.199067 0.943409
1.511009 0.199269 0.943282
1.513066 0.199283 0.943154
1.515037 0.199126 0.943036
1.516975 0.199281 0.942934
1.518985 0.199155 0.942822
1.520593 0.198898 0.942735
1.523488 0.199816 0.942630
1.526948 0.199879 0.942498
1.535218 0.198092 0.942213
1.536074 0.199304 0.942236
1.491444 0.200771 0.944008
1.492960 0.200763 0.943956
1.494942 0.200694 0.943896
1.496914 0.200801 0.943849
1.499170 0.200874 0.943810
1.500843 0.201169 0.943818
1.503154 0.201239 0.943744
1.505076 0.201219 0.943677
1.507014 0.201159 0.943548
1.509064 0.201278 0.943438
1.511008 0.201006 0.943328
1.512989 0.200731 0.943201
1.514935 0.200889 0.943090
1.517013 0.200834 0.942975
1.518970 0.201258 0.942888
1.520982 0.200798 0.942775
1.522799 0.200573 0.942682
1.524895 0.201305 0.942624
1.526553 0.200928 0.942548
1.529015 0.200873 0.942461
1.536192 0.200048 0.942257
1.491501 0.202516 0.944008
1.493146 0.203148 0.943956
1.495184 0.203213 0.943896
1.497088 0.203184 0.943845
1.498978 0.203182 0.943811
1.501056 0.203211 0.943799
1.502969 0.202852 0.943754
1.505044 0.202782 0.943681
1.506968 0.202815 0.943586
1.509021 0.202991 0.943467
1.510996 0.203097 0.943371
1.512974 0.202657 0.943254
1.515136 0.202945 0.943137
1.516859 0.202993 0.943049
1.519085 0.203441 0.942959
1.520993 0.203169 0.942860
1.522888 0.203004 0.942769
1.524898 0.203529 0.942707
1.526172 0.203664 0.942665
1.491409 0.205433 0.944013
1.492993 0.205102 0.943965
1.494921 0.204780 0.943911
1.496983 0.204823 0.943848
1.498910 0.204780 0.943809
1.500939 0.205173 0.943776
1.503003 0.204921 0.943757
1.504860 0.204597 0.943685
1.507135 0.205004 0.943596
1.508968 0.205162 0.943512
1.511091 0.205398 0.943408
1.513035 0.205190 0.943312
1.514955 0.205024 0.943216
1.517001 0.205016 0.943113
1.518970 0.204988 0.943018
1.521037 0.204939 0.942922
1.522863 0.204901 0.942842
1.524662 0.204796 0.942767
1.526513 0.204098 0.942668
1.529098 0.205890 0.942663
1.491419 0.206802 0.944015
1.493146 0.207232 0.943968
1.495049 0.206712 0.943916
1.496976 0.206743 0.943857
1.499009 0.206972 0.943803
1.501167 0.207457 0.943763
1.503086 0.207339 0.943732
1.505072 0.207079 0.943695
1.507039 0.207064 0.943619
1.509048 0.206960 0.943538
1.510925 0.206947 0.943456
1.513025 0.206907 0.943354
1.514971 0.206825 0.943266
1.516998 0.206638 0.943170
1.519102 0.206743 0.943083
1.521020 0.207229 0.943024
1.522988 0.207449 0.942957
1.524970 0.207049 0.942858
1.526906 0.206667 0.942769
1.528196 0.206095 0.942698
1.490800 0.208118 0.944036
1.493249 0.209560 0.943974
1.494981 0.209399 0.943927
1.497030 0.209123 0.943869
1.499051 0.209092 0.943804
1.500960 0.208956 0.943762
1.502914 0.208866 0.943727
1.504925 0.208955 0.943707
1.506914 0.208756 0.943638
1.508898 0.208557 0.943563
1.511156 0.208912 0.943471
1.512978 0.209353 0.943416
1.515110 0.209375 0.943328
1.517059 0.209137 0.943248
1.518951 0.208939 0.943171
1.520925 0.208740 0.943083
1.522997 0.209029 0.943031
1.524904 0.208741 0.942947
1.526489 0.209846 0.942947
1.491378 0.210671 0.944027
1.492988 0.210960 0.943985
1.495117 0.210933 0.943929
1.496968 0.210866 0.943880
1.498950 0.210723 0.943817
1.500846 0.210545 0.943761
1.503128 0.211028 0.943709
1.505004 0.211557 0.943669
1.507087 0.211293 0.943646
1.509081 0.211073 0.943569
1.510945 0.210824 0.943506
1.513006 0.210783 0.943435
1.514951 0.210905 0.943373
1.517059 0.211047 0.943304
1.519037 0.211155 0.943242
1.520972 0.210730 0.943155
1.522879 0.210659 0.943092
1.525036 0.210746 0.943029
1.526925 0.211305 0.942993
1.528589 0.210928 0.942934
1.491579 0.212390 0.944028
1.493148 0.212804 0.943988
1.494975 0.213294 0.943942
1.497054 0.213430 0.943890
1.498971 0.213231 0.943834
1.501008 0.212985 0.943766
1.502930 0.212797 0.943708
1.505130 0.212869 0.943667
1.506881 0.212864 0.943639
1.508940 0.213140 0.943594
1.510997 0.213027 0.943527
1.512917 0.212631 0.943461
1.515175 0.212915 0.943391
1.516829 0.213118 0.943343
1.519106 0.213406 0.943282
1.521078 0.213138 0.943227
1.522903 0.213031 0.943168
1.524969 0.213260 0.943112
1.526880 0.212957 0.943048
1.528875 0.213673 0.943008
1.491420 0.215506 0.944043
1.493074 0.214961 0.943998
1.494944 0.214812 0.943950
1.497021 0.214880 0.943895
1.499082 0.214906 0.943840
1.500953 0.215268 0.943786
1.502992 0.214837 0.943716
1.504850 0.214550 0.943657
1.507068 0.215006 0.943609
1.508858 0.215165 0.943574
1.510981 0.215372 0.943540
1.513089 0.215054 0.943480
1.514923 0.214962 0.943427
1.517025 0.214710 0.943363
1.519030 0.214986 0.943306
1.521004 0.214999 0.943258
1.523022 0.215377 0.943197
1.525061 0.214948 0.943136
1.526874 0.214618 0.943090
1.528809 0.215354 0.943026
1.530994 0.215365 0.942952
1.532158 0.215106 0.942915
1.491844 0.217755 0.944040
1.493188 0.217024 0.944003
1.495152 0.216578 0.943952
1.496872 0.216499 0.943906
1.498939 0.216996 0.943851
1.501191 0.217425 0.943793
1.503020 0.217175 0.943736
1.505064 0.217041 0.943668
1.506942 0.216915 0.943607
1.509034 0.216610 0.943563
1.511010 0.217121 0.943513
1.512992 0.217143 0.943474
1.515002 0.217191 0.943426
1.517007 0.216710 0.943376
1.519028 0.216790 0.943324
1.520921 0.217001 0.943267
1.523141 0.217293 0.943199
1.525032 0.217044 0.943139
1.526786 0.216982 0.943088
1.528849 0.217050 0.943021
1.530312 0.217033 0.942973
1.493092 0.219834 0.944018
1.495078 0.219214 0.943966
1.496982 0.218959 0.943916
1.498996 0.218832 0.943860
1.501015 0.218859 0.943805
1.502986 0.218936 0.943749
1.504947 0.219314 0.943693
1.507012 0.219012 0.943625
1.508959 0.218585 0.943560
1.511138 0.219026 0.943498
1.512799 0.219083 0.943460
1.515111 0.219338 0.943401
1.517098 0.219190 0.943367
1.518914 0.218993 0.943323
1.520987 0.218837 0.943264
1.523112 0.218779 0.943208
1.525010 0.218941 0.943147
1.526832 0.219659 0.943079
1.529133 0.219353 0.943003
1.530891 0.219657 0.942935
1.491116 0.220976 0.944069
1.493357 0.221125 0.944017
1.495056 0.220940 0.943976
1.496994 0.221293 0.943930
1.499013 0.220834 0.943873
1.500911 0.220588 0.943816
1.502961 0.221020 0.943759
1.504964 0.221271 0.943707
1.506991 0.221306 0.943649
1.509067 0.221096 0.943585
1.510877 0.220996 0.943525
1.512976 0.220677 0.943455
1.514952 0.220924 0.943401
1.516945 0.221118 0.943338
1.518976 0.221303 0.943282
1.521075 0.221095 0.943241
1.522903 0.220881 0.943185
1.525005 0.220641 0.943126
1.526962 0.220854 0.943057
1.528606 0.220985 0.943000
1.530516 0.221072 0.942933
1.491568 0.222338 0.944066
1.493154 0.222505 0.944030
1.494873 0.222486 0.943990
1.497257 0.223454 0.943937
1.499043 0.223242 0.943889
1.500996 0.223048 0.943832
1.503040 0.222943 0.943772
1.505013 0.222621 0.943713
1.506988 0.223018 0.943660
1.509034 0.223299 0.943604
1.511031 0.223164 0.943546
1.513016 0.223040 0.943485
1.514916 0.222869 0.943424
1.516973 0.222694 0.943352
1.518989 0.223047 0.943289
1.521025 0.223356 0.943228
1.522967 0.223258 0.943171
1.524970 0.222812 0.943109
1.526865 0.223479 0.943059
1.528512 0.222782 0.943002
1.531923 0.223907 0.942915
1.533241 0.223619 0.942871
1.491041 0.225377 0.944090
1.493153 0.225037 0.944044
1.495063 0.224632 0.943999
1.496978 0.224834 0.943954
1.498935 0.224922 0.943905
1.501033 0.225413 0.943851
1.503111 0.225133 0.943787
1.504941 0.224930 0.943732
1.507005 0.224756 0.943671
1.509018 0.224892 0.943615
1.511077 0.225009 0.943558
1.513075 0.225478 0.943504
1.514999 0.225108 0.943445
1.517018 0.224801 0.943385
1.519002 0.224809 0.943322
1.520861 0.224756 0.943259
1.523127 0.225188 0.943193
1.525088 0.225110 0.943131
1.527067 0.225385 0.943078
1.528904 0.225821 0.943028
1.531061 0.225316 0.942967
1.532307 0.224280 0.942911
1.493224 0.226976 0.944053
1.495278 0.226809 0.944006
1.496953 0.226807 0.943968
1.499009 0.226600 0.943915
1.501046 0.227122 0.943865
1.502982 0.227194 0.943810
1.505022 0.227378 0.943753
1.507017 0.226936 0.943690
1.508982 0.226856 0.943632
1.510935 0.226767 0.943575
1.512837 0.226747 0.943520
1.515019 0.227171 0.943459
1.517003 0.227244 0.943401
1.519050 0.227379 0.943341
1.521034 0.227701 0.943282
1.522976 0.227269 0.943214
1.524985 0.226827 0.943146
1.526989 0.226378 0.943086
1.528325 0.226068 0.943046
1.495361 0.229609 0.944024
1.496994 0.229323 0.943986
1.499092 0.228752 0.943931
1.501007 0.228913 0.943884
1.502909 0.228686 0.943827
1.505109 0.229072 0.943768
1.507100 0.229166 0.943712
1.509013 0.229344 0.943660
1.511538 0.229834 0.943592
1.513001 0.229547 0.943546
1.515013 0.229114 0.943483
1.517018 0.228662 0.943420
1.518962 0.228233 0.943353
1.520013 0.228018 0.943317
1.492981 0.230290 0.944078
1.494793 0.230379 0.944042
1.497493 0.231176 0.943990
1.499012 0.230884 0.943952
1.501162 0.231394 0.943904
1.503201 0.231789 0.943855
1.505005 0.231374 0.943798
1.507030 0.230948 0.943734
1.509044 0.230498 0.943672
1.510627 0.230123 0.943622
1.490360 0.232969 0.944133
1.497649 0.233081 0.944005
1.499222 0.232727 0.943966
1.501045 0.232329 0.943916
1.502241 0.232060 0.943883
1.490412 0.234675 0.944142
1.493142 0.136823 0.942794
1.495894 0.137975 0.944162
1.495982 0.137933 0.944201
1.493926 0.138446 0.943274
1.495329 0.138605 0.943895
1.496439 0.139009 0.944487
1.513099 0.155019 0.946192
1.626944 0.155426 0.943170
1.628017 0.155309 0.943100
1.576883 0.156567 0.944469
1.491629 0.174471 0.943590
1.491755 0.177361 0.943802
1.492187 0.177877 0.943800
1.491696 0.178984 0.943865
1.492336 0.179069 0.943849
1.491736 0.180805 0.943923
1.492264 0.180786 0.943905
1.491632 0.183180 0.943941
1.492248 0.182736 0.943917
1.491772 0.184455 0.943941
1.492583 0.184283 0.943914
1.491656 0.189100 0.943969
1.492820 0.189122 0.943928
1.494248 0.189449 0.943883
1.534003 0.189970 0.942061
1.491550 0.190915 0.943979
1.492129 0.191363 0.943961
1.491355 0.193501 0.943996
1.493111 0.193677 0.943933
1.494027 0.193752 0.943905
1.491291 0.194706 0.943998
1.492393 0.194384 0.943958
1.494004 0.194435 0.943908
1.523286 0.194112 0.942487
1.491443 0.196831 0.943999
1.530821 0.197110 0.942290
1.533314 0.196983 0.942220
1.535160 0.197563 0.942198
1.576455 0.196362 0.941152
1.491378 0.199131 0.944006
1.493078 0.198863 0.943945
1.494195 0.198708 0.943913
1.491307 0.200558 0.944012
1.492837 0.201838 0.943963
1.495401 0.201267 0.943884
1.491364 0.203097 0.944012
1.492719 0.203464 0.943969
1.494938 0.203488 0.943904
1.491359 0.204815 0.944014
1.493022 0.205113 0.943964
1.491471 0.206976 0.944014
1.492464 0.207179 0.943987
1.494239 0.207370 0.943939
1.491292 0.209038 0.944024
1.492914 0.209180 0.943981
1.495097 0.208625 0.943921
1.496604 0.208288 0.943878
1.491361 0.211306 0.944030
1.492957 0.210978 0.943986
1.494571 0.210924 0.943943
1.491151 0.212640 0.944040
1.493142 0.212780 0.943988
1.495293 0.213214 0.943933
1.496960 0.213378 0.943892
1.491295 0.214913 0.944044
1.492689 0.214817 0.944007
1.494545 0.214165 0.943957
1.491242 0.217100 0.944052
1.492845 0.217206 0.944012
1.494674 0.216897 0.943966
1.497906 0.217974 0.943885
1.498533 0.217832 0.943867
1.491104 0.219149 0.944063
1.492999 0.219218 0.944017
1.494970 0.218623 0.943966
1.496023 0.218398 0.943939
1.491254 0.220568 0.944065
1.492815 0.221023 0.944030
1.494814 0.221199 0.943983
1.491008 0.222766 0.944079
1.492984 0.222884 0.944036
1.494885 0.223188 0.943993
1.496956 0.223153 0.943943
1.499145 0.222671 0.943882
1.491308 0.225155 0.944084
1.492864 0.224923 0.944050
1.494815 0.225079 0.944007
1.497092 0.224674 0.943951
1.491206 0.227227 0.944094
1.492950 0.227325 0.944060
1.495008 0.227192 0.944015
1.496852 0.227153 0.943973
1.498645 0.226702 0.943925
1.500736 0.226584 0.943869
1.491176 0.228762 0.944102
1.492986 0.228996 0.944069
1.494692 0.229151 0.944035
1.497047 0.229021 0.943982
1.498137 0.228875 0.943955
1.501016 0.229815 0.943893
1.491178 0.230820 0.944112
1.492978 0.230932 0.944082
1.494865 0.230970 0.944045
1.497044 0.231172 0.944000
1.499106 0.231458 0.943955
1.500733 0.231392 0.943915
1.502379 0.231160 0.943870
1.491208 0.233250 0.944126
1.493596 0.233771 0.944088
1.495007 0.233679 0.944063
1.496860 0.233269 0.944023
1.498359 0.232934 0.943987
1.500654 0.232440 0.943927
1.491304 0.234544 0.944130
1.492892 0.234198 0.944105
1.629285 -0.014167 0.945578
1.631025 -0.014581 0.945503
1.633015 -0.015060 0.945404
1.635005 -0.015501 0.945281
1.636073 -0.015715 0.945200
1.619885 -0.012009 0.945904
1.620986 -0.012249 0.945865
1.623009 -0.012694 0.945795
1.624985 -0.013136 0.945727
1.626954 -0.013563 0.945666
1.628439 -0.013744 0.945619
1.631001 -0.013100 0.945557
1.632991 -0.012989 0.945480
1.634940 -0.013250 0.945373
1.613398 -0.010543 0.946157
1.615105 -0.010912 0.946085
1.617049 -0.011351 0.946009
1.618948 -0.011739 0.945940
1.620854 -0.011228 0.945895
1.622977 -0.011065 0.945841
1.625004 -0.011155 0.945784
1.626989 -0.011239 0.945735
1.629007 -0.011212 0.945683
1.630942 -0.011035 0.945627
1.633143 -0.010613 0.945554
1.635005 -0.010687 0.945457
1.612147 -0.009917 0.946217
1.615288 -0.009298 0.946118
1.616757 -0.009474 0.946064
1.618867 -0.009569 0.945997
1.621556 -0.009670 0.945917
1.622511 -0.009897 0.945886
1.625255 -0.008321 0.945859
1.627098 -0.008580 0.945810
1.628916 -0.008907 0.945756
1.631005 -0.009163 0.945684
1.633026 -0.009327 0.945601
1.634919 -0.009098 0.945518
1.615560 -0.006042 0.946186
1.616998 -0.006273 0.946135
1.618922 -0.006668 0.946068
1.621116 -0.007138 0.945996
1.622920 -0.007494 0.945939
1.625038 -0.007487 0.945888
1.627131 -0.007116 0.945852
1.629030 -0.006968 0.945811
1.631161 -0.006975 0.945746
1.632946 -0.006926 0.945681
1.634902 -0.006630 0.945596
1.613789 -0.005294 0.946260
1.614933 -0.005696 0.946214
1.616532 -0.005902 0.946160
1.621993 -0.005389 0.946020
1.629538 -0.004300 0.945876
1.630976 -0.004993 0.945813
1.632953 -0.004955 0.945740
1.634892 -0.005054 0.945646
1.621516 -0.002306 0.946118
1.622049 -0.002411 0.946102
1.625363 -0.003152 0.946003
1.627064 -0.003532 0.945956
1.629077 -0.003480 0.945911
1.630997 -0.003121 0.945867
1.632982 -0.002925 0.945801
1.634998 -0.002947 0.945702
1.628621 -0.001887 0.945970
1.631679 -0.000644 0.945921
1.633132 -0.000832 0.945858
1.634769 -0.000799 0.945781
1.627325 0.001415 0.946102
1.629262 0.000933 0.946044
1.631009 0.000593 0.945982
1.633013 0.000835 0.945915
1.634801 0.000961 0.945836
1.631376 0.002599 0.946033
1.632992 0.002756 0.945975
1.634739 0.002566 0.945888
1.631510 0.005478 0.946118
1.633130 0.005098 0.946041
1.634766 0.004700 0.945949
1.633216 0.007011 0.946095
1.634355 0.006768 0.946034
1.633669 0.009924 0.946157
1.634340 0.009780 0.946119
1.633378 0.010264 0.946181
1.634599 0.010166 0.946117
1.632685 0.104910 0.946328
1.629635 0.153327 0.943725
1.606729 0.155005 0.944224
1.610680 0.154910 0.944127
1.617064 0.154632 0.944051
1.619217 0.154653 0.943969
1.620928 0.154533 0.943943
1.623200 0.154580 0.943789
1.624988 0.154392 0.943730
1.626993 0.154624 0.943483
1.628868 0.154668 0.943273
1.630594 0.154322 0.943186
1.574474 0.156884 0.944398
1.623650 -0.012797 0.945772
1.611598 -0.010102 0.946234
1.612863 -0.010402 0.946181
1.614772 -0.010802 0.946100
1.616931 -0.010572 0.946032
1.618929 -0.011033 0.945957
1.620726 -0.010140 0.945928
1.623615 -0.010100 0.945851
1.624652 -0.010333 0.945818
1.603285 -0.008149 0.946583
1.605041 -0.008547 0.946509
1.607014 -0.008992 0.946427
1.609000 -0.009440 0.946344
1.610656 -0.009760 0.946275
1.612990 -0.009095 0.946204
1.614916 -0.008852 0.946142
1.617043 -0.008943 0.946068
1.619062 -0.009348 0.945997
1.621012 -0.008812 0.945956
1.622931 -0.008624 0.945909
1.624961 -0.008984 0.945848
1.626737 -0.009381 0.945795
1.595678 -0.006334 0.946952
1.597055 -0.006650 0.946882
1.599038 -0.007114 0.946781
1.601020 -0.007561 0.946686
1.602451 -0.007716 0.946622
1.605032 -0.007068 0.946533
1.607009 -0.006973 0.946462
1.608921 -0.007246 0.946387
1.610896 -0.007434 0.946314
1.612985 -0.007016 0.946250
1.615046 -0.006752 0.946187
1.617179 -0.006775 0.946117
1.619136 -0.006847 0.946057
1.620810 -0.006874 0.946011
1.623075 -0.006999 0.945950
1.625017 -0.007022 0.945901
1.626475 -0.007015 0.945866
1.631254 -0.006080 0.945770
1.593864 -0.005863 0.947048
1.594962 -0.005788 0.946994
1.597102 -0.005049 0.946898
1.598998 -0.005106 0.946810
1.600987 -0.005276 0.946719
1.603017 -0.005171 0.946638
1.604880 -0.005050 0.946570
1.607134 -0.004638 0.946498
1.609049 -0.004703 0.946432
1.610999 -0.004886 0.946362
1.612961 -0.005066 0.946292
1.614933 -0.005360 0.946222
1.616943 -0.005021 0.946169
1.618837 -0.005068 0.946113
1.620961 -0.005128 0.946054
1.623057 -0.004924 0.946008
1.625041 -0.004763 0.945964
1.627009 -0.004739 0.945921
1.628926 -0.005238 0.945862
1.630305 -0.005635 0.945812
1.596915 -0.003944 0.946921
1.599260 -0.002497 0.946832
1.600994 -0.002729 0.946755
1.602931 -0.002893 0.946676
1.605001 -0.003169 0.946596
1.606951 -0.003413 0.946526
1.608917 -0.003118 0.946465
1.610937 -0.002947 0.946402
1.613199 -0.003007 0.946331
1.614980 -0.003059 0.946276
1.617101 -0.002568 0.946228
1.619026 -0.002943 0.946164
1.621002 -0.003116 0.946108
1.623065 -0.002937 0.946063
1.624823 -0.002950 0.946021
1.627013 -0.002959 0.945973
1.628924 -0.002972 0.945931
1.630318 -0.002930 0.945893
1.595643 -0.001177 0.947007
1.597057 -0.001504 0.946940
1.599077 -0.001280 0.946854
1.600963 -0.001092 0.946780
1.603016 -0.000995 0.946702
1.605129 -0.000983 0.946628
1.606967 -0.000965 0.946569
1.609019 -0.000681 0.946507
1.611082 -0.001018 0.946437
1.612876 -0.001059 0.946383
1.615036 -0.000951 0.946324
1.616966 -0.001010 0.946271
1.619014 -0.001373 0.946209
1.620983 -0.000974 0.946171
1.622831 -0.001111 0.946123
1.624948 -0.001024 0.946077
1.627066 -0.000934 0.946035
1.628859 -0.001037 0.945991
1.630858 -0.001048 0.945935
1.597837 0.000218 0.946925
1.598572 0.000400 0.946896
1.601092 0.001225 0.946806
1.603122 0.000967 0.946728
1.604961 0.000966 0.946665
1.606922 0.001025 0.946604
1.609003 0.000893 0.946536
1.611025 0.000707 0.946474
1.613027 0.000980 0.946425
1.614897 0.001038 0.946378
1.617119 0.000997 0.946321
1.618969 0.000986 0.946276
1.620866 0.001087 0.946234
